ply
format ascii 1.0
element vertex 763
comment vertices
property float x
property float y
property float z
end_header
-0.589999973773956299 -0.129999995231628418 0.754999995231628418
0.589999973773956299 0.140000000596046448 -0.384999990463256836
0.589999973773956299 -0.140000000596046448 -0.384999990463256836
-0.589999973773956299 0.140000000596046448 -0.384999990463256836
-0.589999973773956299 -0.140000000596046448 -0.384999990463256836
0.589999973773956299 0.140000000596046448 0.754999995231628418
0.589999973773956299 -0.140000000596046448 0.754999995231628418
-0.589999973773956299 0.140000000596046448 0.754999995231628418
-0.589999973773956299 -0.140000000596046448 0.754999995231628418
0.589999973773956299 0.159999996423721313 -0.370000004768371582
0.589999973773956299 -0.159999996423721313 -0.370000004768371582
-0.589999973773956299 0.159999996423721313 -0.370000004768371582
-0.589999973773956299 -0.159999996423721313 -0.370000004768371582
0.589999973773956299 0.159999996423721313 0.759999990463256836
0.589999973773956299 -0.159999996423721313 0.759999990463256836
-0.589999973773956299 0.159999996423721313 0.759999990463256836
-0.589999973773956299 -0.159999996423721313 0.759999990463256836
0.589999973773956299 0.170000001788139343 0.759999990463256836
0.589999973773956299 -0.170000001788139343 0.759999990463256836
-0.589999973773956299 0.170000001788139343 0.759999990463256836
-0.589999973773956299 -0.170000001788139343 0.759999990463256836
0.589999973773956299 0.180000007152557373 -0.349999994039535522
0.589999973773956299 -0.180000007152557373 -0.349999994039535522
-0.589999973773956299 0.180000007152557373 -0.349999994039535522
-0.589999973773956299 -0.180000007152557373 -0.349999994039535522
0.589999973773956299 0.180000007152557373 0.759999990463256836
0.589999973773956299 -0.180000007152557373 0.759999990463256836
-0.589999973773956299 0.180000007152557373 0.759999990463256836
-0.589999973773956299 -0.180000007152557373 0.759999990463256836
0.589999973773956299 0.189999997615814209 -0.344999998807907104
0.589999973773956299 -0.189999997615814209 -0.344999998807907104
-0.589999973773956299 0.189999997615814209 -0.344999998807907104
-0.589999973773956299 -0.189999997615814209 -0.344999998807907104
0.589999973773956299 0.200000002980232239 0.764999985694885254
0.589999973773956299 -0.200000002980232239 0.764999985694885254
-0.589999973773956299 0.200000002980232239 0.764999985694885254
-0.589999973773956299 -0.200000002980232239 0.764999985694885254
0.589999973773956299 0.209999993443489075 -0.330000013113021851
0.589999973773956299 -0.209999993443489075 -0.330000013113021851
-0.589999973773956299 0.209999993443489075 -0.330000013113021851
-0.589999973773956299 -0.209999993443489075 -0.330000013113021851
0.589999973773956299 0.209999993443489075 0.764999985694885254
0.589999973773956299 -0.209999993443489075 0.764999985694885254
-0.589999973773956299 0.209999993443489075 0.764999985694885254
-0.589999973773956299 -0.209999993443489075 0.764999985694885254
0.589999973773956299 0.219999998807907104 -0.319999992847442627
0.589999973773956299 -0.219999998807907104 -0.319999992847442627
-0.589999973773956299 0.219999998807907104 -0.319999992847442627
-0.589999973773956299 -0.219999998807907104 -0.319999992847442627
0.589999973773956299 0.219999998807907104 0.764999985694885254
0.589999973773956299 -0.219999998807907104 0.764999985694885254
-0.589999973773956299 0.219999998807907104 0.764999985694885254
-0.589999973773956299 -0.219999998807907104 0.764999985694885254
0.589999973773956299 0.230000004172325134 -0.305000007152557373
0.589999973773956299 -0.230000004172325134 -0.305000007152557373
-0.589999973773956299 0.230000004172325134 -0.305000007152557373
-0.589999973773956299 -0.230000004172325134 -0.305000007152557373
0.589999973773956299 0.230000004172325134 0.764999985694885254
0.589999973773956299 -0.230000004172325134 0.764999985694885254
-0.589999973773956299 0.230000004172325134 0.764999985694885254
-0.589999973773956299 -0.230000004172325134 0.764999985694885254
0.589999973773956299 0.25 -0.289999991655349731
0.589999973773956299 -0.25 -0.289999991655349731
-0.589999973773956299 0.25 -0.289999991655349731
-0.589999973773956299 -0.25 -0.289999991655349731
0.589999973773956299 0.25 0.764999985694885254
0.589999973773956299 -0.25 0.764999985694885254
-0.589999973773956299 0.25 0.764999985694885254
-0.589999973773956299 -0.25 0.764999985694885254
0.589999973773956299 0.259999990463256836 -0.284999996423721313
0.589999973773956299 -0.259999990463256836 -0.284999996423721313
-0.589999973773956299 0.259999990463256836 -0.284999996423721313
-0.589999973773956299 -0.259999990463256836 -0.284999996423721313
0.589999973773956299 0.259999990463256836 0.764999985694885254
0.589999973773956299 -0.259999990463256836 0.764999985694885254
-0.589999973773956299 0.259999990463256836 0.764999985694885254
-0.589999973773956299 -0.259999990463256836 0.764999985694885254
0.589999973773956299 0.27000001072883606 -0.280000001192092896
0.589999973773956299 -0.27000001072883606 -0.280000001192092896
-0.589999973773956299 0.27000001072883606 -0.280000001192092896
-0.589999973773956299 -0.27000001072883606 -0.280000001192092896
0.589999973773956299 0.27000001072883606 0.764999985694885254
0.589999973773956299 -0.27000001072883606 0.764999985694885254
-0.589999973773956299 0.27000001072883606 0.764999985694885254
-0.589999973773956299 -0.27000001072883606 0.764999985694885254
0.589999973773956299 0.280000001192092896 0.764999985694885254
0.589999973773956299 -0.280000001192092896 0.764999985694885254
-0.589999973773956299 0.280000001192092896 0.764999985694885254
-0.589999973773956299 -0.280000001192092896 0.764999985694885254
0.589999973773956299 0.289999991655349731 -0.275000005960464478
0.589999973773956299 -0.289999991655349731 -0.275000005960464478
-0.589999973773956299 0.289999991655349731 -0.275000005960464478
-0.589999973773956299 -0.289999991655349731 -0.275000005960464478
0.589999973773956299 0.289999991655349731 0.764999985694885254
0.589999973773956299 -0.289999991655349731 0.764999985694885254
-0.589999973773956299 0.289999991655349731 0.764999985694885254
-0.589999973773956299 -0.289999991655349731 0.764999985694885254
0.589999973773956299 0.300000011920928955 -0.27000001072883606
0.589999973773956299 -0.300000011920928955 -0.27000001072883606
-0.589999973773956299 0.300000011920928955 -0.27000001072883606
-0.589999973773956299 -0.300000011920928955 -0.27000001072883606
0.589999973773956299 0.300000011920928955 0.764999985694885254
0.589999973773956299 -0.300000011920928955 0.764999985694885254
-0.589999973773956299 0.300000011920928955 0.764999985694885254
-0.589999973773956299 -0.300000011920928955 0.764999985694885254
0.589999973773956299 0.310000002384185791 -0.264999985694885254
0.589999973773956299 -0.310000002384185791 -0.264999985694885254
-0.589999973773956299 0.310000002384185791 -0.264999985694885254
-0.589999973773956299 -0.310000002384185791 -0.264999985694885254
0.589999973773956299 0.310000002384185791 0.764999985694885254
0.589999973773956299 -0.310000002384185791 0.764999985694885254
-0.589999973773956299 0.310000002384185791 0.764999985694885254
-0.589999973773956299 -0.310000002384185791 0.764999985694885254
0.589999973773956299 0.330000013113021851 -0.25
0.589999973773956299 -0.330000013113021851 -0.25
-0.589999973773956299 0.330000013113021851 -0.25
-0.589999973773956299 -0.330000013113021851 -0.25
0.589999973773956299 0.330000013113021851 0.769999980926513672
0.589999973773956299 -0.330000013113021851 0.769999980926513672
-0.589999973773956299 0.330000013113021851 0.769999980926513672
-0.589999973773956299 -0.330000013113021851 0.769999980926513672
0.589999973773956299 0.340000003576278687 -0.23999999463558197
0.589999973773956299 -0.340000003576278687 -0.23999999463558197
-0.589999973773956299 0.340000003576278687 -0.23999999463558197
-0.589999973773956299 -0.340000003576278687 -0.23999999463558197
0.589999973773956299 0.340000003576278687 0.769999980926513672
0.589999973773956299 -0.340000003576278687 0.769999980926513672
-0.589999973773956299 0.340000003576278687 0.769999980926513672
-0.589999973773956299 -0.340000003576278687 0.769999980926513672
0.589999973773956299 0.349999994039535522 -0.230000004172325134
0.589999973773956299 -0.349999994039535522 -0.230000004172325134
-0.589999973773956299 0.349999994039535522 -0.230000004172325134
-0.589999973773956299 -0.349999994039535522 -0.230000004172325134
0.589999973773956299 0.360000014305114746 -0.224999994039535522
0.589999973773956299 -0.360000014305114746 -0.224999994039535522
-0.589999973773956299 0.360000014305114746 -0.224999994039535522
-0.589999973773956299 -0.360000014305114746 -0.224999994039535522
0.589999973773956299 0.360000014305114746 0.77499997615814209
0.589999973773956299 -0.360000014305114746 0.77499997615814209
-0.589999973773956299 0.360000014305114746 0.77499997615814209
-0.589999973773956299 -0.360000014305114746 0.77499997615814209
0.589999973773956299 0.370000004768371582 0.769999980926513672
0.589999973773956299 -0.370000004768371582 0.769999980926513672
-0.589999973773956299 0.370000004768371582 0.769999980926513672
-0.589999973773956299 -0.370000004768371582 0.769999980926513672
0.589999973773956299 0.379999995231628418 -0.209999993443489075
0.589999973773956299 -0.379999995231628418 -0.209999993443489075
-0.589999973773956299 0.379999995231628418 -0.209999993443489075
-0.589999973773956299 -0.379999995231628418 -0.209999993443489075
0.589999973773956299 0.379999995231628418 0.769999980926513672
0.589999973773956299 -0.379999995231628418 0.769999980926513672
-0.589999973773956299 0.379999995231628418 0.769999980926513672
-0.589999973773956299 -0.379999995231628418 0.769999980926513672
0.589999973773956299 0.389999985694885254 -0.200000002980232239
0.589999973773956299 -0.389999985694885254 -0.200000002980232239
-0.589999973773956299 0.389999985694885254 -0.200000002980232239
-0.589999973773956299 -0.389999985694885254 -0.200000002980232239
0.589999973773956299 0.389999985694885254 0.764999985694885254
0.589999973773956299 -0.389999985694885254 0.764999985694885254
-0.589999973773956299 0.389999985694885254 0.764999985694885254
-0.589999973773956299 -0.389999985694885254 0.764999985694885254
0.589999973773956299 0.400000005960464478 -0.189999997615814209
0.589999973773956299 -0.400000005960464478 -0.189999997615814209
-0.589999973773956299 0.400000005960464478 -0.189999997615814209
-0.589999973773956299 -0.400000005960464478 -0.189999997615814209
0.589999973773956299 0.400000005960464478 0.764999985694885254
0.589999973773956299 -0.400000005960464478 0.764999985694885254
-0.589999973773956299 0.400000005960464478 0.764999985694885254
-0.589999973773956299 -0.400000005960464478 0.764999985694885254
0.589999973773956299 0.409999996423721313 -0.180000007152557373
0.589999973773956299 -0.409999996423721313 -0.180000007152557373
-0.589999973773956299 0.409999996423721313 -0.180000007152557373
-0.589999973773956299 -0.409999996423721313 -0.180000007152557373
0.589999973773956299 0.409999996423721313 0.759999990463256836
0.589999973773956299 -0.409999996423721313 0.759999990463256836
-0.589999973773956299 0.409999996423721313 0.759999990463256836
-0.589999973773956299 -0.409999996423721313 0.759999990463256836
0.589999973773956299 0.419999986886978149 -0.170000001788139343
0.589999973773956299 -0.419999986886978149 -0.170000001788139343
-0.589999973773956299 0.419999986886978149 -0.170000001788139343
-0.589999973773956299 -0.419999986886978149 -0.170000001788139343
0.589999973773956299 0.419999986886978149 0.759999990463256836
0.589999973773956299 -0.419999986886978149 0.759999990463256836
-0.589999973773956299 0.419999986886978149 0.759999990463256836
-0.589999973773956299 -0.419999986886978149 0.759999990463256836
0.589999973773956299 0.430000007152557373 -0.155000001192092896
0.589999973773956299 -0.430000007152557373 -0.155000001192092896
-0.589999973773956299 0.430000007152557373 -0.155000001192092896
-0.589999973773956299 -0.430000007152557373 -0.155000001192092896
0.589999973773956299 0.430000007152557373 0.754999995231628418
0.589999973773956299 -0.430000007152557373 0.754999995231628418
-0.589999973773956299 0.430000007152557373 0.754999995231628418
-0.589999973773956299 -0.430000007152557373 0.754999995231628418
0.589999973773956299 0.439999997615814209 -0.144999995827674866
0.589999973773956299 -0.439999997615814209 -0.144999995827674866
-0.589999973773956299 0.439999997615814209 -0.144999995827674866
-0.589999973773956299 -0.439999997615814209 -0.144999995827674866
0.589999973773956299 0.439999997615814209 0.75
0.589999973773956299 -0.439999997615814209 0.75
-0.589999973773956299 0.439999997615814209 0.75
-0.589999973773956299 -0.439999997615814209 0.75
0.589999973773956299 0.449999988079071045 -0.13500000536441803
0.589999973773956299 -0.449999988079071045 -0.13500000536441803
-0.589999973773956299 0.449999988079071045 -0.13500000536441803
-0.589999973773956299 -0.449999988079071045 -0.13500000536441803
0.589999973773956299 0.449999988079071045 0.740000009536743164
0.589999973773956299 -0.449999988079071045 0.740000009536743164
-0.589999973773956299 0.449999988079071045 0.740000009536743164
-0.589999973773956299 -0.449999988079071045 0.740000009536743164
0.589999973773956299 0.460000008344650269 -0.119999997317790985
0.589999973773956299 -0.460000008344650269 -0.119999997317790985
-0.589999973773956299 0.460000008344650269 -0.119999997317790985
-0.589999973773956299 -0.460000008344650269 -0.119999997317790985
0.589999973773956299 0.460000008344650269 0.730000019073486328
0.589999973773956299 -0.460000008344650269 0.730000019073486328
-0.589999973773956299 0.460000008344650269 0.730000019073486328
-0.589999973773956299 -0.460000008344650269 0.730000019073486328
0.589999973773956299 0.469999998807907104 -0.109999999403953552
0.589999973773956299 -0.469999998807907104 -0.109999999403953552
-0.589999973773956299 0.469999998807907104 -0.109999999403953552
-0.589999973773956299 -0.469999998807907104 -0.109999999403953552
0.589999973773956299 0.47999998927116394 -0.100000001490116119
0.589999973773956299 -0.47999998927116394 -0.100000001490116119
-0.589999973773956299 0.47999998927116394 -0.100000001490116119
-0.589999973773956299 -0.47999998927116394 -0.100000001490116119
0.589999973773956299 0.47999998927116394 0.709999978542327881
0.589999973773956299 -0.47999998927116394 0.709999978542327881
-0.589999973773956299 0.47999998927116394 0.709999978542327881
-0.589999973773956299 -0.47999998927116394 0.709999978542327881
0.589999973773956299 0.490000009536743164 -0.0900000035762786865
0.589999973773956299 -0.490000009536743164 -0.0900000035762786865
-0.589999973773956299 0.490000009536743164 -0.0900000035762786865
-0.589999973773956299 -0.490000009536743164 -0.0900000035762786865
0.589999973773956299 0.490000009536743164 0.709999978542327881
0.589999973773956299 -0.490000009536743164 0.709999978542327881
-0.589999973773956299 0.490000009536743164 0.709999978542327881
-0.589999973773956299 -0.490000009536743164 0.709999978542327881
0.589999973773956299 0.5 -0.0799999982118606567
0.589999973773956299 -0.5 -0.0799999982118606567
-0.589999973773956299 0.5 -0.0799999982118606567
-0.589999973773956299 -0.5 -0.0799999982118606567
0.589999973773956299 0.509999990463256836 -0.064999997615814209
0.589999973773956299 -0.509999990463256836 -0.064999997615814209
-0.589999973773956299 0.509999990463256836 -0.064999997615814209
-0.589999973773956299 -0.509999990463256836 -0.064999997615814209
0.589999973773956299 0.509999990463256836 0.704999983310699463
0.589999973773956299 -0.509999990463256836 0.704999983310699463
-0.589999973773956299 0.509999990463256836 0.704999983310699463
-0.589999973773956299 -0.509999990463256836 0.704999983310699463
0.589999973773956299 0.519999980926513672 -0.0500000007450580597
0.589999973773956299 -0.519999980926513672 -0.0500000007450580597
-0.589999973773956299 0.519999980926513672 -0.0500000007450580597
-0.589999973773956299 -0.519999980926513672 -0.0500000007450580597
0.589999973773956299 0.519999980926513672 0.704999983310699463
0.589999973773956299 -0.519999980926513672 0.704999983310699463
-0.589999973773956299 0.519999980926513672 0.704999983310699463
-0.589999973773956299 -0.519999980926513672 0.704999983310699463
0.589999973773956299 0.529999971389770508 -0.0350000001490116119
0.589999973773956299 -0.529999971389770508 -0.0350000001490116119
-0.589999973773956299 0.529999971389770508 -0.0350000001490116119
-0.589999973773956299 -0.529999971389770508 -0.0350000001490116119
0.589999973773956299 0.540000021457672119 -0.0149999996647238731
0.589999973773956299 -0.540000021457672119 -0.0149999996647238731
-0.589999973773956299 0.540000021457672119 -0.0149999996647238731
-0.589999973773956299 -0.540000021457672119 -0.0149999996647238731
0.589999973773956299 0.540000021457672119 0.699999988079071045
0.589999973773956299 -0.540000021457672119 0.699999988079071045
-0.589999973773956299 0.540000021457672119 0.699999988079071045
-0.589999973773956299 -0.540000021457672119 0.699999988079071045
0.589999973773956299 0.550000011920928955 0.00499999988824129105
0.589999973773956299 -0.550000011920928955 0.00499999988824129105
-0.589999973773956299 0.550000011920928955 0.00499999988824129105
-0.589999973773956299 -0.550000011920928955 0.00499999988824129105
0.589999973773956299 0.550000011920928955 0.694999992847442627
0.589999973773956299 -0.550000011920928955 0.694999992847442627
-0.589999973773956299 0.550000011920928955 0.694999992847442627
-0.589999973773956299 -0.550000011920928955 0.694999992847442627
0.589999973773956299 0.560000002384185791 0.0250000003725290298
0.589999973773956299 -0.560000002384185791 0.0250000003725290298
-0.589999973773956299 0.560000002384185791 0.0250000003725290298
-0.589999973773956299 -0.560000002384185791 0.0250000003725290298
0.589999973773956299 0.560000002384185791 0.685000002384185791
0.589999973773956299 -0.560000002384185791 0.685000002384185791
-0.589999973773956299 0.560000002384185791 0.685000002384185791
-0.589999973773956299 -0.560000002384185791 0.685000002384185791
0.589999973773956299 0.569999992847442627 0.0450000017881393433
0.589999973773956299 -0.569999992847442627 0.0450000017881393433
-0.589999973773956299 0.569999992847442627 0.0450000017881393433
-0.589999973773956299 -0.569999992847442627 0.0450000017881393433
0.589999973773956299 0.569999992847442627 0.670000016689300537
0.589999973773956299 -0.569999992847442627 0.670000016689300537
-0.589999973773956299 0.569999992847442627 0.670000016689300537
-0.589999973773956299 -0.569999992847442627 0.670000016689300537
0.589999973773956299 0.579999983310699463 0.0750000029802322388
0.589999973773956299 -0.579999983310699463 0.0750000029802322388
-0.589999973773956299 0.579999983310699463 0.0750000029802322388
-0.589999973773956299 -0.579999983310699463 0.0750000029802322388
0.589999973773956299 0.579999983310699463 0.654999971389770508
0.589999973773956299 -0.579999983310699463 0.654999971389770508
-0.589999973773956299 0.579999983310699463 0.654999971389770508
-0.589999973773956299 -0.579999983310699463 0.654999971389770508
0.589999973773956299 0.589999973773956299 0.119999997317790985
0.589999973773956299 -0.589999973773956299 0.119999997317790985
-0.589999973773956299 0.589999973773956299 0.119999997317790985
-0.589999973773956299 -0.589999973773956299 0.119999997317790985
0.589999973773956299 0.589999973773956299 0.639999985694885254
0.589999973773956299 -0.589999973773956299 0.639999985694885254
-0.589999973773956299 0.589999973773956299 0.639999985694885254
-0.589999973773956299 -0.589999973773956299 0.639999985694885254
0.589999973773956299 0.60000002384185791 0.629999995231628418
0.589999973773956299 -0.60000002384185791 0.629999995231628418
-0.589999973773956299 0.60000002384185791 0.629999995231628418
-0.589999973773956299 -0.60000002384185791 0.629999995231628418
0.589999973773956299 0.610000014305114746 0.140000000596046448
0.589999973773956299 -0.610000014305114746 0.140000000596046448
-0.589999973773956299 0.610000014305114746 0.140000000596046448
-0.589999973773956299 -0.610000014305114746 0.140000000596046448
0.589999973773956299 0.610000014305114746 0.625
0.589999973773956299 -0.610000014305114746 0.625
-0.589999973773956299 0.610000014305114746 0.625
-0.589999973773956299 -0.610000014305114746 0.625
0.589999973773956299 0.620000004768371582 0.150000005960464478
0.589999973773956299 -0.620000004768371582 0.150000005960464478
-0.589999973773956299 0.620000004768371582 0.150000005960464478
-0.589999973773956299 -0.620000004768371582 0.150000005960464478
0.589999973773956299 0.620000004768371582 0.615000009536743164
0.589999973773956299 -0.620000004768371582 0.615000009536743164
-0.589999973773956299 0.620000004768371582 0.615000009536743164
-0.589999973773956299 -0.620000004768371582 0.615000009536743164
0.589999973773956299 0.629999995231628418 0.165000006556510925
0.589999973773956299 -0.629999995231628418 0.165000006556510925
-0.589999973773956299 0.629999995231628418 0.165000006556510925
-0.589999973773956299 -0.629999995231628418 0.165000006556510925
0.589999973773956299 0.629999995231628418 0.605000019073486328
0.589999973773956299 -0.629999995231628418 0.605000019073486328
-0.589999973773956299 0.629999995231628418 0.605000019073486328
-0.589999973773956299 -0.629999995231628418 0.605000019073486328
0.589999973773956299 0.639999985694885254 0.194999992847442627
0.589999973773956299 -0.639999985694885254 0.194999992847442627
-0.589999973773956299 0.639999985694885254 0.194999992847442627
-0.589999973773956299 -0.639999985694885254 0.194999992847442627
0.589999973773956299 0.639999985694885254 0.589999973773956299
0.589999973773956299 -0.639999985694885254 0.589999973773956299
-0.589999973773956299 0.639999985694885254 0.589999973773956299
-0.589999973773956299 -0.639999985694885254 0.589999973773956299
0.589999973773956299 0.64999997615814209 0.230000004172325134
0.589999973773956299 -0.64999997615814209 0.230000004172325134
-0.589999973773956299 0.64999997615814209 0.230000004172325134
-0.589999973773956299 -0.64999997615814209 0.230000004172325134
0.589999973773956299 0.64999997615814209 0.259999990463256836
0.589999973773956299 -0.64999997615814209 0.259999990463256836
-0.589999973773956299 0.64999997615814209 0.259999990463256836
-0.589999973773956299 -0.64999997615814209 0.259999990463256836
0.589999973773956299 0.64999997615814209 0.314999997615814209
0.589999973773956299 -0.64999997615814209 0.314999997615814209
-0.589999973773956299 0.64999997615814209 0.314999997615814209
-0.589999973773956299 -0.64999997615814209 0.314999997615814209
0.589999973773956299 0.64999997615814209 0.485000014305114746
0.589999973773956299 -0.64999997615814209 0.485000014305114746
-0.589999973773956299 0.64999997615814209 0.485000014305114746
-0.589999973773956299 -0.64999997615814209 0.485000014305114746
0.589999973773956299 0.64999997615814209 0.555000007152557373
0.589999973773956299 -0.64999997615814209 0.555000007152557373
-0.589999973773956299 0.64999997615814209 0.555000007152557373
-0.589999973773956299 -0.64999997615814209 0.555000007152557373
0.589999973773956299 0.660000026226043701 0.344999998807907104
0.589999973773956299 -0.660000026226043701 0.344999998807907104
-0.589999973773956299 0.660000026226043701 0.344999998807907104
-0.589999973773956299 -0.660000026226043701 0.344999998807907104
0.589999973773956299 0.660000026226043701 0.375
0.589999973773956299 -0.660000026226043701 0.375
-0.589999973773956299 0.660000026226043701 0.375
-0.589999973773956299 -0.660000026226043701 0.375
0.589999973773956299 0.670000016689300537 0.360000014305114746
0.589999973773956299 -0.670000016689300537 0.360000014305114746
-0.589999973773956299 0.670000016689300537 0.360000014305114746
-0.589999973773956299 -0.670000016689300537 0.360000014305114746
0.60000002384185791 0.00999999977648258209 -0.39500001072883606
0.60000002384185791 -0.00999999977648258209 -0.39500001072883606
-0.60000002384185791 0.00999999977648258209 -0.39500001072883606
-0.60000002384185791 -0.00999999977648258209 -0.39500001072883606
0.60000002384185791 0.0199999995529651642 -0.39500001072883606
0.60000002384185791 -0.0199999995529651642 -0.39500001072883606
-0.60000002384185791 0.0199999995529651642 -0.39500001072883606
-0.60000002384185791 -0.0199999995529651642 -0.39500001072883606
0.60000002384185791 0.0299999993294477463 -0.389999985694885254
0.60000002384185791 -0.0299999993294477463 -0.389999985694885254
-0.60000002384185791 0.0299999993294477463 -0.389999985694885254
-0.60000002384185791 -0.0299999993294477463 -0.389999985694885254
0.60000002384185791 0.0299999993294477463 0.709999978542327881
0.60000002384185791 -0.0299999993294477463 0.709999978542327881
-0.60000002384185791 0.0299999993294477463 0.709999978542327881
-0.60000002384185791 -0.0299999993294477463 0.709999978542327881
0.60000002384185791 0.0399999991059303284 -0.389999985694885254
0.60000002384185791 -0.0399999991059303284 -0.389999985694885254
-0.60000002384185791 0.0399999991059303284 -0.389999985694885254
-0.60000002384185791 -0.0399999991059303284 -0.389999985694885254
0.60000002384185791 0.0399999991059303284 0.720000028610229492
0.60000002384185791 -0.0399999991059303284 0.720000028610229492
-0.60000002384185791 0.0399999991059303284 0.720000028610229492
-0.60000002384185791 -0.0399999991059303284 0.720000028610229492
0.60000002384185791 0.0500000007450580597 0.730000019073486328
0.60000002384185791 -0.0500000007450580597 0.730000019073486328
-0.60000002384185791 0.0500000007450580597 0.730000019073486328
-0.60000002384185791 -0.0500000007450580597 0.730000019073486328
0.60000002384185791 0.0599999986588954926 -0.384999990463256836
0.60000002384185791 -0.0599999986588954926 -0.384999990463256836
-0.60000002384185791 0.0599999986588954926 -0.384999990463256836
-0.60000002384185791 -0.0599999986588954926 -0.384999990463256836
0.60000002384185791 0.0599999986588954926 0.735000014305114746
0.60000002384185791 -0.0599999986588954926 0.735000014305114746
-0.60000002384185791 0.0599999986588954926 0.735000014305114746
-0.60000002384185791 -0.0599999986588954926 0.735000014305114746
0.60000002384185791 0.0700000002980232239 -0.384999990463256836
0.60000002384185791 -0.0700000002980232239 -0.384999990463256836
-0.60000002384185791 0.0700000002980232239 -0.384999990463256836
-0.60000002384185791 -0.0700000002980232239 -0.384999990463256836
0.60000002384185791 0.0799999982118606567 -0.384999990463256836
0.60000002384185791 -0.0799999982118606567 -0.384999990463256836
-0.60000002384185791 0.0799999982118606567 -0.384999990463256836
-0.60000002384185791 -0.0799999982118606567 -0.384999990463256836
0.60000002384185791 0.0900000035762786865 -0.384999990463256836
0.60000002384185791 -0.0900000035762786865 -0.384999990463256836
-0.60000002384185791 0.0900000035762786865 -0.384999990463256836
-0.60000002384185791 -0.0900000035762786865 -0.384999990463256836
0.60000002384185791 0.0900000035762786865 0.740000009536743164
0.60000002384185791 -0.0900000035762786865 0.740000009536743164
-0.60000002384185791 0.0900000035762786865 0.740000009536743164
-0.60000002384185791 -0.0900000035762786865 0.740000009536743164
0.60000002384185791 0.100000001490116119 -0.384999990463256836
0.60000002384185791 -0.100000001490116119 -0.384999990463256836
-0.60000002384185791 0.100000001490116119 -0.384999990463256836
-0.60000002384185791 -0.100000001490116119 -0.384999990463256836
0.60000002384185791 0.100000001490116119 0.740000009536743164
0.60000002384185791 -0.100000001490116119 0.740000009536743164
-0.60000002384185791 0.100000001490116119 0.740000009536743164
-0.60000002384185791 -0.100000001490116119 0.740000009536743164
0.60000002384185791 0.109999999403953552 -0.384999990463256836
0.60000002384185791 -0.109999999403953552 -0.384999990463256836
-0.60000002384185791 0.109999999403953552 -0.384999990463256836
-0.60000002384185791 -0.109999999403953552 -0.384999990463256836
0.60000002384185791 0.119999997317790985 -0.384999990463256836
0.60000002384185791 -0.119999997317790985 -0.384999990463256836
-0.60000002384185791 0.119999997317790985 -0.384999990463256836
-0.60000002384185791 -0.119999997317790985 -0.384999990463256836
0.60000002384185791 0.129999995231628418 -0.379999995231628418
0.60000002384185791 -0.129999995231628418 -0.379999995231628418
-0.60000002384185791 0.129999995231628418 -0.379999995231628418
-0.60000002384185791 -0.129999995231628418 -0.379999995231628418
0.60000002384185791 0.140000000596046448 -0.370000004768371582
0.60000002384185791 -0.140000000596046448 -0.370000004768371582
-0.60000002384185791 0.140000000596046448 -0.370000004768371582
-0.60000002384185791 -0.140000000596046448 -0.370000004768371582
0.60000002384185791 0.150000005960464478 -0.360000014305114746
0.60000002384185791 -0.150000005960464478 -0.360000014305114746
-0.60000002384185791 0.150000005960464478 -0.360000014305114746
-0.60000002384185791 -0.150000005960464478 -0.360000014305114746
0.60000002384185791 0.159999996423721313 -0.349999994039535522
0.60000002384185791 -0.159999996423721313 -0.349999994039535522
-0.60000002384185791 0.159999996423721313 -0.349999994039535522
-0.60000002384185791 -0.159999996423721313 -0.349999994039535522
0.60000002384185791 0.170000001788139343 -0.340000003576278687
0.60000002384185791 -0.170000001788139343 -0.340000003576278687
-0.60000002384185791 0.170000001788139343 -0.340000003576278687
-0.60000002384185791 -0.170000001788139343 -0.340000003576278687
0.60000002384185791 0.170000001788139343 0.745000004768371582
0.60000002384185791 -0.170000001788139343 0.745000004768371582
-0.60000002384185791 0.170000001788139343 0.745000004768371582
-0.60000002384185791 -0.170000001788139343 0.745000004768371582
0.60000002384185791 0.180000007152557373 -0.335000008344650269
0.60000002384185791 -0.180000007152557373 -0.335000008344650269
-0.60000002384185791 0.180000007152557373 -0.335000008344650269
-0.60000002384185791 -0.180000007152557373 -0.335000008344650269
0.60000002384185791 0.180000007152557373 0.745000004768371582
0.60000002384185791 -0.180000007152557373 0.745000004768371582
-0.60000002384185791 0.180000007152557373 0.745000004768371582
-0.60000002384185791 -0.180000007152557373 0.745000004768371582
0.60000002384185791 0.189999997615814209 0.745000004768371582
0.60000002384185791 -0.189999997615814209 0.745000004768371582
-0.60000002384185791 0.189999997615814209 0.745000004768371582
-0.60000002384185791 -0.189999997615814209 0.745000004768371582
0.60000002384185791 0.200000002980232239 -0.319999992847442627
0.60000002384185791 -0.200000002980232239 -0.319999992847442627
-0.60000002384185791 0.200000002980232239 -0.319999992847442627
-0.60000002384185791 -0.200000002980232239 -0.319999992847442627
0.60000002384185791 0.209999993443489075 -0.305000007152557373
0.60000002384185791 -0.209999993443489075 -0.305000007152557373
-0.60000002384185791 0.209999993443489075 -0.305000007152557373
-0.60000002384185791 -0.209999993443489075 -0.305000007152557373
0.60000002384185791 0.209999993443489075 0.75
0.60000002384185791 -0.209999993443489075 0.75
-0.60000002384185791 0.209999993443489075 0.75
-0.60000002384185791 -0.209999993443489075 0.75
0.60000002384185791 0.219999998807907104 -0.294999986886978149
0.60000002384185791 -0.219999998807907104 -0.294999986886978149
-0.60000002384185791 0.219999998807907104 -0.294999986886978149
-0.60000002384185791 -0.219999998807907104 -0.294999986886978149
0.60000002384185791 0.219999998807907104 0.75
0.60000002384185791 -0.219999998807907104 0.75
-0.60000002384185791 0.219999998807907104 0.75
-0.60000002384185791 -0.219999998807907104 0.75
0.60000002384185791 0.23999999463558197 -0.275000005960464478
0.60000002384185791 -0.23999999463558197 -0.275000005960464478
-0.60000002384185791 0.23999999463558197 -0.275000005960464478
-0.60000002384185791 -0.23999999463558197 -0.275000005960464478
0.60000002384185791 0.23999999463558197 0.754999995231628418
0.60000002384185791 -0.23999999463558197 0.754999995231628418
-0.60000002384185791 0.23999999463558197 0.754999995231628418
-0.60000002384185791 -0.23999999463558197 0.754999995231628418
0.60000002384185791 0.25 -0.27000001072883606
0.60000002384185791 -0.25 -0.27000001072883606
-0.60000002384185791 0.25 -0.27000001072883606
-0.60000002384185791 -0.25 -0.27000001072883606
0.60000002384185791 0.27000001072883606 -0.264999985694885254
0.60000002384185791 -0.27000001072883606 -0.264999985694885254
-0.60000002384185791 0.27000001072883606 -0.264999985694885254
-0.60000002384185791 -0.27000001072883606 -0.264999985694885254
0.60000002384185791 0.289999991655349731 -0.259999990463256836
0.60000002384185791 -0.289999991655349731 -0.259999990463256836
-0.60000002384185791 0.289999991655349731 -0.259999990463256836
-0.60000002384185791 -0.289999991655349731 -0.259999990463256836
0.60000002384185791 0.300000011920928955 -0.254999995231628418
0.60000002384185791 -0.300000011920928955 -0.254999995231628418
-0.60000002384185791 0.300000011920928955 -0.254999995231628418
-0.60000002384185791 -0.300000011920928955 -0.254999995231628418
0.60000002384185791 0.310000002384185791 -0.25
0.60000002384185791 -0.310000002384185791 -0.25
-0.60000002384185791 0.310000002384185791 -0.25
-0.60000002384185791 -0.310000002384185791 -0.25
0.60000002384185791 0.319999992847442627 -0.23999999463558197
0.60000002384185791 -0.319999992847442627 -0.23999999463558197
-0.60000002384185791 0.319999992847442627 -0.23999999463558197
-0.60000002384185791 -0.319999992847442627 -0.23999999463558197
0.60000002384185791 0.330000013113021851 -0.230000004172325134
0.60000002384185791 -0.330000013113021851 -0.230000004172325134
-0.60000002384185791 0.330000013113021851 -0.230000004172325134
-0.60000002384185791 -0.330000013113021851 -0.230000004172325134
0.60000002384185791 0.330000013113021851 0.754999995231628418
0.60000002384185791 -0.330000013113021851 0.754999995231628418
-0.60000002384185791 0.330000013113021851 0.754999995231628418
-0.60000002384185791 -0.330000013113021851 0.754999995231628418
0.60000002384185791 0.340000003576278687 -0.219999998807907104
0.60000002384185791 -0.340000003576278687 -0.219999998807907104
-0.60000002384185791 0.340000003576278687 -0.219999998807907104
-0.60000002384185791 -0.340000003576278687 -0.219999998807907104
0.60000002384185791 0.340000003576278687 0.754999995231628418
0.60000002384185791 -0.340000003576278687 0.754999995231628418
-0.60000002384185791 0.340000003576278687 0.754999995231628418
-0.60000002384185791 -0.340000003576278687 0.754999995231628418
0.60000002384185791 0.349999994039535522 -0.215000003576278687
0.60000002384185791 -0.349999994039535522 -0.215000003576278687
-0.60000002384185791 0.349999994039535522 -0.215000003576278687
-0.60000002384185791 -0.349999994039535522 -0.215000003576278687
0.60000002384185791 0.349999994039535522 0.754999995231628418
0.60000002384185791 -0.349999994039535522 0.754999995231628418
-0.60000002384185791 0.349999994039535522 0.754999995231628418
-0.60000002384185791 -0.349999994039535522 0.754999995231628418
0.60000002384185791 0.360000014305114746 0.754999995231628418
0.60000002384185791 -0.360000014305114746 0.754999995231628418
-0.60000002384185791 0.360000014305114746 0.754999995231628418
-0.60000002384185791 -0.360000014305114746 0.754999995231628418
0.60000002384185791 0.370000004768371582 -0.200000002980232239
0.60000002384185791 -0.370000004768371582 -0.200000002980232239
-0.60000002384185791 0.370000004768371582 -0.200000002980232239
-0.60000002384185791 -0.370000004768371582 -0.200000002980232239
0.60000002384185791 0.370000004768371582 0.754999995231628418
0.60000002384185791 -0.370000004768371582 0.754999995231628418
-0.60000002384185791 0.370000004768371582 0.754999995231628418
-0.60000002384185791 -0.370000004768371582 0.754999995231628418
0.60000002384185791 0.379999995231628418 -0.189999997615814209
0.60000002384185791 -0.379999995231628418 -0.189999997615814209
-0.60000002384185791 0.379999995231628418 -0.189999997615814209
-0.60000002384185791 -0.379999995231628418 -0.189999997615814209
0.60000002384185791 0.379999995231628418 0.75
0.60000002384185791 -0.379999995231628418 0.75
-0.60000002384185791 0.379999995231628418 0.75
-0.60000002384185791 -0.379999995231628418 0.75
0.60000002384185791 0.389999985694885254 -0.180000007152557373
0.60000002384185791 -0.389999985694885254 -0.180000007152557373
-0.60000002384185791 0.389999985694885254 -0.180000007152557373
-0.60000002384185791 -0.389999985694885254 -0.180000007152557373
0.60000002384185791 0.400000005960464478 -0.170000001788139343
0.60000002384185791 -0.400000005960464478 -0.170000001788139343
-0.60000002384185791 0.400000005960464478 -0.170000001788139343
-0.60000002384185791 -0.400000005960464478 -0.170000001788139343
0.60000002384185791 0.400000005960464478 0.745000004768371582
0.60000002384185791 -0.400000005960464478 0.745000004768371582
-0.60000002384185791 0.400000005960464478 0.745000004768371582
-0.60000002384185791 -0.400000005960464478 0.745000004768371582
0.60000002384185791 0.409999996423721313 -0.155000001192092896
0.60000002384185791 -0.409999996423721313 -0.155000001192092896
-0.60000002384185791 0.409999996423721313 -0.155000001192092896
-0.60000002384185791 -0.409999996423721313 -0.155000001192092896
0.60000002384185791 0.419999986886978149 -0.144999995827674866
0.60000002384185791 -0.419999986886978149 -0.144999995827674866
-0.60000002384185791 0.419999986886978149 -0.144999995827674866
-0.60000002384185791 -0.419999986886978149 -0.144999995827674866
0.60000002384185791 0.419999986886978149 0.740000009536743164
0.60000002384185791 -0.419999986886978149 0.740000009536743164
-0.60000002384185791 0.419999986886978149 0.740000009536743164
-0.60000002384185791 -0.419999986886978149 0.740000009536743164
0.60000002384185791 0.430000007152557373 -0.13500000536441803
0.60000002384185791 -0.430000007152557373 -0.13500000536441803
-0.60000002384185791 0.430000007152557373 -0.13500000536441803
-0.60000002384185791 -0.430000007152557373 -0.13500000536441803
0.60000002384185791 0.430000007152557373 0.735000014305114746
0.60000002384185791 -0.430000007152557373 0.735000014305114746
-0.60000002384185791 0.430000007152557373 0.735000014305114746
-0.60000002384185791 -0.430000007152557373 0.735000014305114746
0.60000002384185791 0.439999997615814209 -0.125
0.60000002384185791 -0.439999997615814209 -0.125
-0.60000002384185791 0.439999997615814209 -0.125
-0.60000002384185791 -0.439999997615814209 -0.125
0.60000002384185791 0.439999997615814209 0.72500002384185791
0.60000002384185791 -0.439999997615814209 0.72500002384185791
-0.60000002384185791 0.439999997615814209 0.72500002384185791
-0.60000002384185791 -0.439999997615814209 0.72500002384185791
0.60000002384185791 0.449999988079071045 -0.109999999403953552
0.60000002384185791 -0.449999988079071045 -0.109999999403953552
-0.60000002384185791 0.449999988079071045 -0.109999999403953552
-0.60000002384185791 -0.449999988079071045 -0.109999999403953552
0.60000002384185791 0.460000008344650269 -0.100000001490116119
0.60000002384185791 -0.460000008344650269 -0.100000001490116119
-0.60000002384185791 0.460000008344650269 -0.100000001490116119
-0.60000002384185791 -0.460000008344650269 -0.100000001490116119
0.60000002384185791 0.460000008344650269 0.704999983310699463
0.60000002384185791 -0.460000008344650269 0.704999983310699463
-0.60000002384185791 0.460000008344650269 0.704999983310699463
-0.60000002384185791 -0.460000008344650269 0.704999983310699463
0.60000002384185791 0.469999998807907104 -0.0900000035762786865
0.60000002384185791 -0.469999998807907104 -0.0900000035762786865
-0.60000002384185791 0.469999998807907104 -0.0900000035762786865
-0.60000002384185791 -0.469999998807907104 -0.0900000035762786865
0.60000002384185791 0.469999998807907104 0.699999988079071045
0.60000002384185791 -0.469999998807907104 0.699999988079071045
-0.60000002384185791 0.469999998807907104 0.699999988079071045
-0.60000002384185791 -0.469999998807907104 0.699999988079071045
0.60000002384185791 0.47999998927116394 -0.0799999982118606567
0.60000002384185791 -0.47999998927116394 -0.0799999982118606567
-0.60000002384185791 0.47999998927116394 -0.0799999982118606567
-0.60000002384185791 -0.47999998927116394 -0.0799999982118606567
0.60000002384185791 0.47999998927116394 0.694999992847442627
0.60000002384185791 -0.47999998927116394 0.694999992847442627
-0.60000002384185791 0.47999998927116394 0.694999992847442627
-0.60000002384185791 -0.47999998927116394 0.694999992847442627
0.60000002384185791 0.490000009536743164 -0.0700000002980232239
0.60000002384185791 -0.490000009536743164 -0.0700000002980232239
-0.60000002384185791 0.490000009536743164 -0.0700000002980232239
-0.60000002384185791 -0.490000009536743164 -0.0700000002980232239
0.60000002384185791 0.490000009536743164 0.694999992847442627
0.60000002384185791 -0.490000009536743164 0.694999992847442627
-0.60000002384185791 0.490000009536743164 0.694999992847442627
-0.60000002384185791 -0.490000009536743164 0.694999992847442627
0.60000002384185791 0.5 -0.0599999986588954926
0.60000002384185791 -0.5 -0.0599999986588954926
-0.60000002384185791 0.5 -0.0599999986588954926
-0.60000002384185791 -0.5 -0.0599999986588954926
0.60000002384185791 0.509999990463256836 -0.0399999991059303284
0.60000002384185791 -0.509999990463256836 -0.0399999991059303284
-0.60000002384185791 0.509999990463256836 -0.0399999991059303284
-0.60000002384185791 -0.509999990463256836 -0.0399999991059303284
0.60000002384185791 0.509999990463256836 0.689999997615814209
0.60000002384185791 -0.509999990463256836 0.689999997615814209
-0.60000002384185791 0.509999990463256836 0.689999997615814209
-0.60000002384185791 -0.509999990463256836 0.689999997615814209
0.60000002384185791 0.519999980926513672 -0.0250000003725290298
0.60000002384185791 -0.519999980926513672 -0.0250000003725290298
-0.60000002384185791 0.519999980926513672 -0.0250000003725290298
-0.60000002384185791 -0.519999980926513672 -0.0250000003725290298
0.60000002384185791 0.519999980926513672 0.689999997615814209
0.60000002384185791 -0.519999980926513672 0.689999997615814209
-0.60000002384185791 0.519999980926513672 0.689999997615814209
-0.60000002384185791 -0.519999980926513672 0.689999997615814209
0.60000002384185791 0.529999971389770508 -0.00499999988824129105
0.60000002384185791 -0.529999971389770508 -0.00499999988824129105
-0.60000002384185791 0.529999971389770508 -0.00499999988824129105
-0.60000002384185791 -0.529999971389770508 -0.00499999988824129105
0.60000002384185791 0.540000021457672119 0.0149999996647238731
0.60000002384185791 -0.540000021457672119 0.0149999996647238731
-0.60000002384185791 0.540000021457672119 0.0149999996647238731
-0.60000002384185791 -0.540000021457672119 0.0149999996647238731
0.60000002384185791 0.540000021457672119 0.685000002384185791
0.60000002384185791 -0.540000021457672119 0.685000002384185791
-0.60000002384185791 0.540000021457672119 0.685000002384185791
-0.60000002384185791 -0.540000021457672119 0.685000002384185791
0.60000002384185791 0.550000011920928955 0.0350000001490116119
0.60000002384185791 -0.550000011920928955 0.0350000001490116119
-0.60000002384185791 0.550000011920928955 0.0350000001490116119
-0.60000002384185791 -0.550000011920928955 0.0350000001490116119
0.60000002384185791 0.550000011920928955 0.675000011920928955
0.60000002384185791 -0.550000011920928955 0.675000011920928955
-0.60000002384185791 0.550000011920928955 0.675000011920928955
-0.60000002384185791 -0.550000011920928955 0.675000011920928955
0.60000002384185791 0.560000002384185791 0.0599999986588954926
0.60000002384185791 -0.560000002384185791 0.0599999986588954926
-0.60000002384185791 0.560000002384185791 0.0599999986588954926
-0.60000002384185791 -0.560000002384185791 0.0599999986588954926
0.60000002384185791 0.569999992847442627 0.100000001490116119
0.60000002384185791 -0.569999992847442627 0.100000001490116119
-0.60000002384185791 0.569999992847442627 0.100000001490116119
-0.60000002384185791 -0.569999992847442627 0.100000001490116119
0.60000002384185791 0.569999992847442627 0.644999980926513672
0.60000002384185791 -0.569999992847442627 0.644999980926513672
-0.60000002384185791 0.569999992847442627 0.644999980926513672
-0.60000002384185791 -0.569999992847442627 0.644999980926513672
0.60000002384185791 0.579999983310699463 0.129999995231628418
0.60000002384185791 -0.579999983310699463 0.129999995231628418
-0.60000002384185791 0.579999983310699463 0.129999995231628418
-0.60000002384185791 -0.579999983310699463 0.129999995231628418
0.60000002384185791 0.579999983310699463 0.629999995231628418
0.60000002384185791 -0.579999983310699463 0.629999995231628418
-0.60000002384185791 0.579999983310699463 0.629999995231628418
-0.60000002384185791 -0.579999983310699463 0.629999995231628418
0.60000002384185791 0.589999973773956299 0.620000004768371582
0.60000002384185791 -0.589999973773956299 0.620000004768371582
-0.60000002384185791 0.589999973773956299 0.620000004768371582
-0.60000002384185791 -0.589999973773956299 0.620000004768371582
0.60000002384185791 0.60000002384185791 0.615000009536743164
0.60000002384185791 -0.60000002384185791 0.615000009536743164
-0.60000002384185791 0.60000002384185791 0.615000009536743164
-0.60000002384185791 -0.60000002384185791 0.615000009536743164
0.60000002384185791 0.610000014305114746 0.159999996423721313
0.60000002384185791 -0.610000014305114746 0.159999996423721313
-0.60000002384185791 0.610000014305114746 0.159999996423721313
-0.60000002384185791 -0.610000014305114746 0.159999996423721313
0.60000002384185791 0.610000014305114746 0.605000019073486328
0.60000002384185791 -0.610000014305114746 0.605000019073486328
-0.60000002384185791 0.610000014305114746 0.605000019073486328
-0.60000002384185791 -0.610000014305114746 0.605000019073486328
0.60000002384185791 0.620000004768371582 0.174999997019767761
0.60000002384185791 -0.620000004768371582 0.174999997019767761
-0.60000002384185791 0.620000004768371582 0.174999997019767761
-0.60000002384185791 -0.620000004768371582 0.174999997019767761
0.60000002384185791 0.620000004768371582 0.595000028610229492
0.60000002384185791 -0.620000004768371582 0.595000028610229492
-0.60000002384185791 0.620000004768371582 0.595000028610229492
-0.60000002384185791 -0.620000004768371582 0.595000028610229492
0.60000002384185791 0.629999995231628418 0.219999998807907104
0.60000002384185791 -0.629999995231628418 0.219999998807907104
-0.60000002384185791 0.629999995231628418 0.219999998807907104
-0.60000002384185791 -0.629999995231628418 0.219999998807907104
0.60000002384185791 0.629999995231628418 0.284999996423721313
0.60000002384185791 -0.629999995231628418 0.284999996423721313
-0.60000002384185791 0.629999995231628418 0.284999996423721313
-0.60000002384185791 -0.629999995231628418 0.284999996423721313
0.60000002384185791 0.629999995231628418 0.564999997615814209
0.60000002384185791 -0.629999995231628418 0.564999997615814209
-0.60000002384185791 0.629999995231628418 0.564999997615814209
-0.60000002384185791 -0.629999995231628418 0.564999997615814209
0.60000002384185791 0.639999985694885254 0.335000008344650269
0.60000002384185791 -0.639999985694885254 0.335000008344650269
-0.60000002384185791 0.639999985694885254 0.335000008344650269
-0.60000002384185791 -0.639999985694885254 0.335000008344650269
0.60000002384185791 0.639999985694885254 0.400000005960464478
0.60000002384185791 -0.639999985694885254 0.400000005960464478
-0.60000002384185791 0.639999985694885254 0.400000005960464478
-0.60000002384185791 -0.639999985694885254 0.400000005960464478
0.60000002384185791 0.64999997615814209 0.360000014305114746
0.60000002384185791 -0.64999997615814209 0.360000014305114746
-0.60000002384185791 0.64999997615814209 0.360000014305114746
-0.60000002384185791 -0.64999997615814209 0.360000014305114746
0.610000014305114746 0 -0.379999995231628418
0.610000014305114746 -0 -0.379999995231628418
