ply
format ascii 1.0
element vertex 762
comment vertices
property float x
property float y
property float z
end_header
-0.0850000008940696716 -0.855000019073486328 -0.224999994039535522
0.0850000008940696716 0.884999990463256836 -0.174999997019767761
0.0850000008940696716 -0.884999990463256836 -0.174999997019767761
-0.0850000008940696716 0.884999990463256836 -0.174999997019767761
-0.0850000008940696716 -0.884999990463256836 -0.174999997019767761
0.0850000008940696716 0.889999985694885254 1.11000001430511475
0.0850000008940696716 -0.889999985694885254 1.11000001430511475
-0.0850000008940696716 0.889999985694885254 1.11000001430511475
-0.0850000008940696716 -0.889999985694885254 1.11000001430511475
0.0850000008940696716 0.904999971389770508 -0.150000005960464478
0.0850000008940696716 -0.904999971389770508 -0.150000005960464478
-0.0850000008940696716 0.904999971389770508 -0.150000005960464478
-0.0850000008940696716 -0.904999971389770508 -0.150000005960464478
0.0850000008940696716 0.920000016689300537 1.09000003337860107
0.0850000008940696716 -0.920000016689300537 1.09000003337860107
-0.0850000008940696716 0.920000016689300537 1.09000003337860107
-0.0850000008940696716 -0.920000016689300537 1.09000003337860107
0.0850000008940696716 0.925000011920928955 1.08500003814697266
0.0850000008940696716 -0.925000011920928955 1.08500003814697266
-0.0850000008940696716 0.925000011920928955 1.08500003814697266
-0.0850000008940696716 -0.925000011920928955 1.08500003814697266
0.0850000008940696716 0.980000019073486328 1.02499997615814209
0.0850000008940696716 -0.980000019073486328 1.02499997615814209
-0.0850000008940696716 0.980000019073486328 1.02499997615814209
-0.0850000008940696716 -0.980000019073486328 1.02499997615814209
0.0850000008940696716 1.08000004291534424 0.230000004172325134
0.0850000008940696716 -1.08000004291534424 0.230000004172325134
-0.0850000008940696716 1.08000004291534424 0.230000004172325134
-0.0850000008940696716 -1.08000004291534424 0.230000004172325134
0.0850000008940696716 1.11000001430511475 0.720000028610229492
0.0850000008940696716 -1.11000001430511475 0.720000028610229492
-0.0850000008940696716 1.11000001430511475 0.720000028610229492
-0.0850000008940696716 -1.11000001430511475 0.720000028610229492
0.0850000008940696716 1.11500000953674316 0.375
0.0850000008940696716 -1.11500000953674316 0.375
-0.0850000008940696716 1.11500000953674316 0.375
-0.0850000008940696716 -1.11500000953674316 0.375
0.0850000008940696716 1.12000000476837158 0.644999980926513672
0.0850000008940696716 -1.12000000476837158 0.644999980926513672
-0.0850000008940696716 1.12000000476837158 0.644999980926513672
-0.0850000008940696716 -1.12000000476837158 0.644999980926513672
0.0850000008940696716 1.125 0.574999988079071045
0.0850000008940696716 -1.125 0.574999988079071045
-0.0850000008940696716 1.125 0.574999988079071045
-0.0850000008940696716 -1.125 0.574999988079071045
0.0900000035762786865 0 -0.949999988079071045
0.0900000035762786865 -0 -0.949999988079071045
-0.0900000035762786865 0 -0.949999988079071045
-0.0900000035762786865 -0 -0.949999988079071045
0.0900000035762786865 0.0250000003725290298 -0.935000002384185791
0.0900000035762786865 -0.0250000003725290298 -0.935000002384185791
-0.0900000035762786865 0.0250000003725290298 -0.935000002384185791
-0.0900000035762786865 -0.0250000003725290298 -0.935000002384185791
0.0900000035762786865 0.0799999982118606567 1.08500003814697266
0.0900000035762786865 -0.0799999982118606567 1.08500003814697266
-0.0900000035762786865 0.0799999982118606567 1.08500003814697266
-0.0900000035762786865 -0.0799999982118606567 1.08500003814697266
0.0900000035762786865 0.180000007152557373 -0.824999988079071045
0.0900000035762786865 -0.180000007152557373 -0.824999988079071045
-0.0900000035762786865 0.180000007152557373 -0.824999988079071045
-0.0900000035762786865 -0.180000007152557373 -0.824999988079071045
0.0900000035762786865 0.194999992847442627 1.15999996662139893
0.0900000035762786865 -0.194999992847442627 1.15999996662139893
-0.0900000035762786865 0.194999992847442627 1.15999996662139893
-0.0900000035762786865 -0.194999992847442627 1.15999996662139893
0.0900000035762786865 0.25 -0.785000026226043701
0.0900000035762786865 -0.25 -0.785000026226043701
-0.0900000035762786865 0.25 -0.785000026226043701
-0.0900000035762786865 -0.25 -0.785000026226043701
0.0900000035762786865 0.25 1.17499995231628418
0.0900000035762786865 -0.25 1.17499995231628418
-0.0900000035762786865 0.25 1.17499995231628418
-0.0900000035762786865 -0.25 1.17499995231628418
0.0900000035762786865 0.264999985694885254 1.1799999475479126
0.0900000035762786865 -0.264999985694885254 1.1799999475479126
-0.0900000035762786865 0.264999985694885254 1.1799999475479126
-0.0900000035762786865 -0.264999985694885254 1.1799999475479126
0.0900000035762786865 0.39500001072883606 1.22000002861022949
0.0900000035762786865 -0.39500001072883606 1.22000002861022949
-0.0900000035762786865 0.39500001072883606 1.22000002861022949
-0.0900000035762786865 -0.39500001072883606 1.22000002861022949
0.0900000035762786865 0.425000011920928955 1.22500002384185791
0.0900000035762786865 -0.425000011920928955 1.22500002384185791
-0.0900000035762786865 0.425000011920928955 1.22500002384185791
-0.0900000035762786865 -0.425000011920928955 1.22500002384185791
0.0900000035762786865 0.560000002384185791 1.22500002384185791
0.0900000035762786865 -0.560000002384185791 1.22500002384185791
-0.0900000035762786865 0.560000002384185791 1.22500002384185791
-0.0900000035762786865 -0.560000002384185791 1.22500002384185791
0.0900000035762786865 0.639999985694885254 -0.469999998807907104
0.0900000035762786865 -0.639999985694885254 -0.469999998807907104
-0.0900000035762786865 0.639999985694885254 -0.469999998807907104
-0.0900000035762786865 -0.639999985694885254 -0.469999998807907104
0.0900000035762786865 0.644999980926513672 1.22000002861022949
0.0900000035762786865 -0.644999980926513672 1.22000002861022949
-0.0900000035762786865 0.644999980926513672 1.22000002861022949
-0.0900000035762786865 -0.644999980926513672 1.22000002861022949
0.0900000035762786865 0.875 -0.189999997615814209
0.0900000035762786865 -0.875 -0.189999997615814209
-0.0900000035762786865 0.875 -0.189999997615814209
-0.0900000035762786865 -0.875 -0.189999997615814209
0.0900000035762786865 0.889999985694885254 1.11000001430511475
0.0900000035762786865 -0.889999985694885254 1.11000001430511475
-0.0900000035762786865 0.889999985694885254 1.11000001430511475
-0.0900000035762786865 -0.889999985694885254 1.11000001430511475
0.0900000035762786865 0.89999997615814209 -0.155000001192092896
0.0900000035762786865 -0.89999997615814209 -0.155000001192092896
-0.0900000035762786865 0.89999997615814209 -0.155000001192092896
-0.0900000035762786865 -0.89999997615814209 -0.155000001192092896
0.0900000035762786865 0.920000016689300537 -0.129999995231628418
0.0900000035762786865 -0.920000016689300537 -0.129999995231628418
-0.0900000035762786865 0.920000016689300537 -0.129999995231628418
-0.0900000035762786865 -0.920000016689300537 -0.129999995231628418
0.0900000035762786865 0.954999983310699463 -0.0750000029802322388
0.0900000035762786865 -0.954999983310699463 -0.0750000029802322388
-0.0900000035762786865 0.954999983310699463 -0.0750000029802322388
-0.0900000035762786865 -0.954999983310699463 -0.0750000029802322388
0.0900000035762786865 0.97500002384185791 1.02999997138977051
0.0900000035762786865 -0.97500002384185791 1.02999997138977051
-0.0900000035762786865 0.97500002384185791 1.02999997138977051
-0.0900000035762786865 -0.97500002384185791 1.02999997138977051
0.0900000035762786865 1.00499999523162842 0.985000014305114746
0.0900000035762786865 -1.00499999523162842 0.985000014305114746
-0.0900000035762786865 1.00499999523162842 0.985000014305114746
-0.0900000035762786865 -1.00499999523162842 0.985000014305114746
0.0900000035762786865 1.01499998569488525 0.0549999997019767761
0.0900000035762786865 -1.01499998569488525 0.0549999997019767761
-0.0900000035762786865 1.01499998569488525 0.0549999997019767761
-0.0900000035762786865 -1.01499998569488525 0.0549999997019767761
0.0900000035762786865 1.02499997615814209 0.0750000029802322388
0.0900000035762786865 -1.02499997615814209 0.0750000029802322388
-0.0900000035762786865 1.02499997615814209 0.0750000029802322388
-0.0900000035762786865 -1.02499997615814209 0.0750000029802322388
0.0900000035762786865 1.02999997138977051 0.0850000008940696716
0.0900000035762786865 -1.02999997138977051 0.0850000008940696716
-0.0900000035762786865 1.02999997138977051 0.0850000008940696716
-0.0900000035762786865 -1.02999997138977051 0.0850000008940696716
0.0900000035762786865 1.05999994277954102 0.174999997019767761
0.0900000035762786865 -1.05999994277954102 0.174999997019767761
-0.0900000035762786865 1.05999994277954102 0.174999997019767761
-0.0900000035762786865 -1.05999994277954102 0.174999997019767761
0.0900000035762786865 1.10500001907348633 0.759999990463256836
0.0900000035762786865 -1.10500001907348633 0.759999990463256836
-0.0900000035762786865 1.10500001907348633 0.759999990463256836
-0.0900000035762786865 -1.10500001907348633 0.759999990463256836
0.0900000035762786865 1.11000001430511475 0.720000028610229492
0.0900000035762786865 -1.11000001430511475 0.720000028610229492
-0.0900000035762786865 1.11000001430511475 0.720000028610229492
-0.0900000035762786865 -1.11000001430511475 0.720000028610229492
0.0900000035762786865 1.11500000953674316 0.379999995231628418
0.0900000035762786865 -1.11500000953674316 0.379999995231628418
-0.0900000035762786865 1.11500000953674316 0.379999995231628418
-0.0900000035762786865 -1.11500000953674316 0.379999995231628418
0.0900000035762786865 1.12000000476837158 0.629999995231628418
0.0900000035762786865 -1.12000000476837158 0.629999995231628418
-0.0900000035762786865 1.12000000476837158 0.629999995231628418
-0.0900000035762786865 -1.12000000476837158 0.629999995231628418
0.0900000035762786865 1.125 0.564999997615814209
0.0900000035762786865 -1.125 0.564999997615814209
-0.0900000035762786865 1.125 0.564999997615814209
-0.0900000035762786865 -1.125 0.564999997615814209
0.0949999988079071045 0.00499999988824129105 1.04499995708465576
0.0949999988079071045 -0.00499999988824129105 1.04499995708465576
-0.0949999988079071045 0.00499999988824129105 1.04499995708465576
-0.0949999988079071045 -0.00499999988824129105 1.04499995708465576
0.0949999988079071045 0.0199999995529651642 -0.935000002384185791
0.0949999988079071045 -0.0199999995529651642 -0.935000002384185791
-0.0949999988079071045 0.0199999995529651642 -0.935000002384185791
-0.0949999988079071045 -0.0199999995529651642 -0.935000002384185791
0.0949999988079071045 0.0299999993294477463 -0.930000007152557373
0.0949999988079071045 -0.0299999993294477463 -0.930000007152557373
-0.0949999988079071045 0.0299999993294477463 -0.930000007152557373
-0.0949999988079071045 -0.0299999993294477463 -0.930000007152557373
0.0949999988079071045 0.0299999993294477463 1.0549999475479126
0.0949999988079071045 -0.0299999993294477463 1.0549999475479126
-0.0949999988079071045 0.0299999993294477463 1.0549999475479126
-0.0949999988079071045 -0.0299999993294477463 1.0549999475479126
0.0949999988079071045 0.0399999991059303284 -0.925000011920928955
0.0949999988079071045 -0.0399999991059303284 -0.925000011920928955
-0.0949999988079071045 0.0399999991059303284 -0.925000011920928955
-0.0949999988079071045 -0.0399999991059303284 -0.925000011920928955
0.0949999988079071045 0.0500000007450580597 -0.920000016689300537
0.0949999988079071045 -0.0500000007450580597 -0.920000016689300537
-0.0949999988079071045 0.0500000007450580597 -0.920000016689300537
-0.0949999988079071045 -0.0500000007450580597 -0.920000016689300537
0.0949999988079071045 0.0799999982118606567 1.08500003814697266
0.0949999988079071045 -0.0799999982118606567 1.08500003814697266
-0.0949999988079071045 0.0799999982118606567 1.08500003814697266
-0.0949999988079071045 -0.0799999982118606567 1.08500003814697266
0.0949999988079071045 0.0900000035762786865 -0.889999985694885254
0.0949999988079071045 -0.0900000035762786865 -0.889999985694885254
-0.0949999988079071045 0.0900000035762786865 -0.889999985694885254
-0.0949999988079071045 -0.0900000035762786865 -0.889999985694885254
0.0949999988079071045 0.104999996721744537 1.10500001907348633
0.0949999988079071045 -0.104999996721744537 1.10500001907348633
-0.0949999988079071045 0.104999996721744537 1.10500001907348633
-0.0949999988079071045 -0.104999996721744537 1.10500001907348633
0.0949999988079071045 0.13500000536441803 -0.855000019073486328
0.0949999988079071045 -0.13500000536441803 -0.855000019073486328
-0.0949999988079071045 0.13500000536441803 -0.855000019073486328
-0.0949999988079071045 -0.13500000536441803 -0.855000019073486328
0.0949999988079071045 0.194999992847442627 1.15999996662139893
0.0949999988079071045 -0.194999992847442627 1.15999996662139893
-0.0949999988079071045 0.194999992847442627 1.15999996662139893
-0.0949999988079071045 -0.194999992847442627 1.15999996662139893
0.0949999988079071045 0.215000003576278687 1.16499996185302734
0.0949999988079071045 -0.215000003576278687 1.16499996185302734
-0.0949999988079071045 0.215000003576278687 1.16499996185302734
-0.0949999988079071045 -0.215000003576278687 1.16499996185302734
0.0949999988079071045 0.384999990463256836 -0.685000002384185791
0.0949999988079071045 -0.384999990463256836 -0.685000002384185791
-0.0949999988079071045 0.384999990463256836 -0.685000002384185791
-0.0949999988079071045 -0.384999990463256836 -0.685000002384185791
0.0949999988079071045 0.425000011920928955 -0.654999971389770508
0.0949999988079071045 -0.425000011920928955 -0.654999971389770508
-0.0949999988079071045 0.425000011920928955 -0.654999971389770508
-0.0949999988079071045 -0.425000011920928955 -0.654999971389770508
0.0949999988079071045 0.435000002384185791 1.22500002384185791
0.0949999988079071045 -0.435000002384185791 1.22500002384185791
-0.0949999988079071045 0.435000002384185791 1.22500002384185791
-0.0949999988079071045 -0.435000002384185791 1.22500002384185791
0.0949999988079071045 0.444999992847442627 -0.639999985694885254
0.0949999988079071045 -0.444999992847442627 -0.639999985694885254
-0.0949999988079071045 0.444999992847442627 -0.639999985694885254
-0.0949999988079071045 -0.444999992847442627 -0.639999985694885254
0.0949999988079071045 0.47999998927116394 -0.615000009536743164
0.0949999988079071045 -0.47999998927116394 -0.615000009536743164
-0.0949999988079071045 0.47999998927116394 -0.615000009536743164
-0.0949999988079071045 -0.47999998927116394 -0.615000009536743164
0.0949999988079071045 0.545000016689300537 1.22500002384185791
0.0949999988079071045 -0.545000016689300537 1.22500002384185791
-0.0949999988079071045 0.545000016689300537 1.22500002384185791
-0.0949999988079071045 -0.545000016689300537 1.22500002384185791
0.0949999988079071045 0.639999985694885254 1.22000002861022949
0.0949999988079071045 -0.639999985694885254 1.22000002861022949
-0.0949999988079071045 0.639999985694885254 1.22000002861022949
-0.0949999988079071045 -0.639999985694885254 1.22000002861022949
0.0949999988079071045 0.72500002384185791 1.1799999475479126
0.0949999988079071045 -0.72500002384185791 1.1799999475479126
-0.0949999988079071045 0.72500002384185791 1.1799999475479126
-0.0949999988079071045 -0.72500002384185791 1.1799999475479126
0.0949999988079071045 0.730000019073486328 -0.375
0.0949999988079071045 -0.730000019073486328 -0.375
-0.0949999988079071045 0.730000019073486328 -0.375
-0.0949999988079071045 -0.730000019073486328 -0.375
0.0949999988079071045 0.805000007152557373 -0.294999986886978149
0.0949999988079071045 -0.805000007152557373 -0.294999986886978149
-0.0949999988079071045 0.805000007152557373 -0.294999986886978149
-0.0949999988079071045 -0.805000007152557373 -0.294999986886978149
0.0949999988079071045 0.810000002384185791 1.15499997138977051
0.0949999988079071045 -0.810000002384185791 1.15499997138977051
-0.0949999988079071045 0.810000002384185791 1.15499997138977051
-0.0949999988079071045 -0.810000002384185791 1.15499997138977051
0.0949999988079071045 0.889999985694885254 1.11000001430511475
0.0949999988079071045 -0.889999985694885254 1.11000001430511475
-0.0949999988079071045 0.889999985694885254 1.11000001430511475
-0.0949999988079071045 -0.889999985694885254 1.11000001430511475
0.0949999988079071045 0.894999980926513672 -0.159999996423721313
0.0949999988079071045 -0.894999980926513672 -0.159999996423721313
-0.0949999988079071045 0.894999980926513672 -0.159999996423721313
-0.0949999988079071045 -0.894999980926513672 -0.159999996423721313
0.0949999988079071045 0.910000026226043701 1.10000002384185791
0.0949999988079071045 -0.910000026226043701 1.10000002384185791
-0.0949999988079071045 0.910000026226043701 1.10000002384185791
-0.0949999988079071045 -0.910000026226043701 1.10000002384185791
0.0949999988079071045 0.970000028610229492 -0.0450000017881393433
0.0949999988079071045 -0.970000028610229492 -0.0450000017881393433
-0.0949999988079071045 0.970000028610229492 -0.0450000017881393433
-0.0949999988079071045 -0.970000028610229492 -0.0450000017881393433
0.0949999988079071045 1.00499999523162842 0.0350000001490116119
0.0949999988079071045 -1.00499999523162842 0.0350000001490116119
-0.0949999988079071045 1.00499999523162842 0.0350000001490116119
-0.0949999988079071045 -1.00499999523162842 0.0350000001490116119
0.0949999988079071045 1.0700000524520874 0.209999993443489075
0.0949999988079071045 -1.0700000524520874 0.209999993443489075
-0.0949999988079071045 1.0700000524520874 0.209999993443489075
-0.0949999988079071045 -1.0700000524520874 0.209999993443489075
0.0949999988079071045 1.0700000524520874 0.834999978542327881
0.0949999988079071045 -1.0700000524520874 0.834999978542327881
-0.0949999988079071045 1.0700000524520874 0.834999978542327881
-0.0949999988079071045 -1.0700000524520874 0.834999978542327881
0.0949999988079071045 1.10000002384185791 0.294999986886978149
0.0949999988079071045 -1.10000002384185791 0.294999986886978149
-0.0949999988079071045 1.10000002384185791 0.294999986886978149
-0.0949999988079071045 -1.10000002384185791 0.294999986886978149
0.0949999988079071045 1.10500001907348633 0.319999992847442627
0.0949999988079071045 -1.10500001907348633 0.319999992847442627
-0.0949999988079071045 1.10500001907348633 0.319999992847442627
-0.0949999988079071045 -1.10500001907348633 0.319999992847442627
0.0949999988079071045 1.11000001430511475 0.349999994039535522
0.0949999988079071045 -1.11000001430511475 0.349999994039535522
-0.0949999988079071045 1.11000001430511475 0.349999994039535522
-0.0949999988079071045 -1.11000001430511475 0.349999994039535522
0.0949999988079071045 1.11000001430511475 0.720000028610229492
0.0949999988079071045 -1.11000001430511475 0.720000028610229492
-0.0949999988079071045 1.11000001430511475 0.720000028610229492
-0.0949999988079071045 -1.11000001430511475 0.720000028610229492
0.0949999988079071045 1.12000000476837158 0.439999997615814209
0.0949999988079071045 -1.12000000476837158 0.439999997615814209
-0.0949999988079071045 1.12000000476837158 0.439999997615814209
-0.0949999988079071045 -1.12000000476837158 0.439999997615814209
0.0949999988079071045 1.125 0.529999971389770508
0.0949999988079071045 -1.125 0.529999971389770508
-0.0949999988079071045 1.125 0.529999971389770508
-0.0949999988079071045 -1.125 0.529999971389770508
0.100000001490116119 0.0149999996647238731 -0.935000002384185791
0.100000001490116119 -0.0149999996647238731 -0.935000002384185791
-0.100000001490116119 0.0149999996647238731 -0.935000002384185791
-0.100000001490116119 -0.0149999996647238731 -0.935000002384185791
0.100000001490116119 0.0250000003725290298 -0.930000007152557373
0.100000001490116119 -0.0250000003725290298 -0.930000007152557373
-0.100000001490116119 0.0250000003725290298 -0.930000007152557373
-0.100000001490116119 -0.0250000003725290298 -0.930000007152557373
0.100000001490116119 0.0299999993294477463 1.0549999475479126
0.100000001490116119 -0.0299999993294477463 1.0549999475479126
-0.100000001490116119 0.0299999993294477463 1.0549999475479126
-0.100000001490116119 -0.0299999993294477463 1.0549999475479126
0.100000001490116119 0.0799999982118606567 1.08500003814697266
0.100000001490116119 -0.0799999982118606567 1.08500003814697266
-0.100000001490116119 0.0799999982118606567 1.08500003814697266
-0.100000001490116119 -0.0799999982118606567 1.08500003814697266
0.100000001490116119 0.100000001490116119 -0.879999995231628418
0.100000001490116119 -0.100000001490116119 -0.879999995231628418
-0.100000001490116119 0.100000001490116119 -0.879999995231628418
-0.100000001490116119 -0.100000001490116119 -0.879999995231628418
0.100000001490116119 0.170000001788139343 -0.829999983310699463
0.100000001490116119 -0.170000001788139343 -0.829999983310699463
-0.100000001490116119 0.170000001788139343 -0.829999983310699463
-0.100000001490116119 -0.170000001788139343 -0.829999983310699463
0.100000001490116119 0.234999999403953552 -0.795000016689300537
0.100000001490116119 -0.234999999403953552 -0.795000016689300537
-0.100000001490116119 0.234999999403953552 -0.795000016689300537
-0.100000001490116119 -0.234999999403953552 -0.795000016689300537
0.100000001490116119 0.284999996423721313 -0.754999995231628418
0.100000001490116119 -0.284999996423721313 -0.754999995231628418
-0.100000001490116119 0.284999996423721313 -0.754999995231628418
-0.100000001490116119 -0.284999996423721313 -0.754999995231628418
0.100000001490116119 0.310000002384185791 1.19000005722045898
0.100000001490116119 -0.310000002384185791 1.19000005722045898
-0.100000001490116119 0.310000002384185791 1.19000005722045898
-0.100000001490116119 -0.310000002384185791 1.19000005722045898
0.100000001490116119 0.335000008344650269 -0.720000028610229492
0.100000001490116119 -0.335000008344650269 -0.720000028610229492
-0.100000001490116119 0.335000008344650269 -0.720000028610229492
-0.100000001490116119 -0.335000008344650269 -0.720000028610229492
0.100000001490116119 0.360000014305114746 1.21000003814697266
0.100000001490116119 -0.360000014305114746 1.21000003814697266
-0.100000001490116119 0.360000014305114746 1.21000003814697266
-0.100000001490116119 -0.360000014305114746 1.21000003814697266
0.100000001490116119 0.400000005960464478 1.22000002861022949
0.100000001490116119 -0.400000005960464478 1.22000002861022949
-0.100000001490116119 0.400000005960464478 1.22000002861022949
-0.100000001490116119 -0.400000005960464478 1.22000002861022949
0.100000001490116119 0.449999988079071045 -0.634999990463256836
0.100000001490116119 -0.449999988079071045 -0.634999990463256836
-0.100000001490116119 0.449999988079071045 -0.634999990463256836
-0.100000001490116119 -0.449999988079071045 -0.634999990463256836
0.100000001490116119 0.449999988079071045 1.22500002384185791
0.100000001490116119 -0.449999988079071045 1.22500002384185791
-0.100000001490116119 0.449999988079071045 1.22500002384185791
-0.100000001490116119 -0.449999988079071045 1.22500002384185791
0.100000001490116119 0.519999980926513672 1.22500002384185791
0.100000001490116119 -0.519999980926513672 1.22500002384185791
-0.100000001490116119 0.519999980926513672 1.22500002384185791
-0.100000001490116119 -0.519999980926513672 1.22500002384185791
0.100000001490116119 0.629999995231628418 1.22000002861022949
0.100000001490116119 -0.629999995231628418 1.22000002861022949
-0.100000001490116119 0.629999995231628418 1.22000002861022949
-0.100000001490116119 -0.629999995231628418 1.22000002861022949
0.100000001490116119 0.685000002384185791 1.20500004291534424
0.100000001490116119 -0.685000002384185791 1.20500004291534424
-0.100000001490116119 0.685000002384185791 1.20500004291534424
-0.100000001490116119 -0.685000002384185791 1.20500004291534424
0.100000001490116119 0.714999973773956299 -0.389999985694885254
0.100000001490116119 -0.714999973773956299 -0.389999985694885254
-0.100000001490116119 0.714999973773956299 -0.389999985694885254
-0.100000001490116119 -0.714999973773956299 -0.389999985694885254
0.100000001490116119 0.720000028610229492 -0.384999990463256836
0.100000001490116119 -0.720000028610229492 -0.384999990463256836
-0.100000001490116119 0.720000028610229492 -0.384999990463256836
-0.100000001490116119 -0.720000028610229492 -0.384999990463256836
0.100000001490116119 0.790000021457672119 1.16499996185302734
0.100000001490116119 -0.790000021457672119 1.16499996185302734
-0.100000001490116119 0.790000021457672119 1.16499996185302734
-0.100000001490116119 -0.790000021457672119 1.16499996185302734
0.100000001490116119 0.875 1.11500000953674316
0.100000001490116119 -0.875 1.11500000953674316
-0.100000001490116119 0.875 1.11500000953674316
-0.100000001490116119 -0.875 1.11500000953674316
0.100000001490116119 0.915000021457672119 -0.13500000536441803
0.100000001490116119 -0.915000021457672119 -0.13500000536441803
-0.100000001490116119 0.915000021457672119 -0.13500000536441803
-0.100000001490116119 -0.915000021457672119 -0.13500000536441803
0.100000001490116119 0.939999997615814209 1.06500005722045898
0.100000001490116119 -0.939999997615814209 1.06500005722045898
-0.100000001490116119 0.939999997615814209 1.06500005722045898
-0.100000001490116119 -0.939999997615814209 1.06500005722045898
0.100000001490116119 0.944999992847442627 -0.0850000008940696716
0.100000001490116119 -0.944999992847442627 -0.0850000008940696716
-0.100000001490116119 0.944999992847442627 -0.0850000008940696716
-0.100000001490116119 -0.944999992847442627 -0.0850000008940696716
0.100000001490116119 1.00999999046325684 0.0500000007450580597
0.100000001490116119 -1.00999999046325684 0.0500000007450580597
-0.100000001490116119 1.00999999046325684 0.0500000007450580597
-0.100000001490116119 -1.00999999046325684 0.0500000007450580597
0.100000001490116119 1.03499996662139893 0.930000007152557373
0.100000001490116119 -1.03499996662139893 0.930000007152557373
-0.100000001490116119 1.03499996662139893 0.930000007152557373
-0.100000001490116119 -1.03499996662139893 0.930000007152557373
0.100000001490116119 1.0549999475479126 0.875
0.100000001490116119 -1.0549999475479126 0.875
-0.100000001490116119 1.0549999475479126 0.875
-0.100000001490116119 -1.0549999475479126 0.875
0.100000001490116119 1.08500003814697266 0.254999995231628418
0.100000001490116119 -1.08500003814697266 0.254999995231628418
-0.100000001490116119 1.08500003814697266 0.254999995231628418
-0.100000001490116119 -1.08500003814697266 0.254999995231628418
0.100000001490116119 1.10500001907348633 0.324999988079071045
0.100000001490116119 -1.10500001907348633 0.324999988079071045
-0.100000001490116119 1.10500001907348633 0.324999988079071045
-0.100000001490116119 -1.10500001907348633 0.324999988079071045
0.100000001490116119 1.11000001430511475 0.720000028610229492
0.100000001490116119 -1.11000001430511475 0.720000028610229492
-0.100000001490116119 1.11000001430511475 0.720000028610229492
-0.100000001490116119 -1.11000001430511475 0.720000028610229492
0.100000001490116119 1.12000000476837158 0.465000003576278687
0.100000001490116119 -1.12000000476837158 0.465000003576278687
-0.100000001490116119 1.12000000476837158 0.465000003576278687
-0.100000001490116119 -1.12000000476837158 0.465000003576278687
0.104999996721744537 0.0199999995529651642 -0.930000007152557373
0.104999996721744537 -0.0199999995529651642 -0.930000007152557373
-0.104999996721744537 0.0199999995529651642 -0.930000007152557373
-0.104999996721744537 -0.0199999995529651642 -0.930000007152557373
0.104999996721744537 0.155000001192092896 1.13999998569488525
0.104999996721744537 -0.155000001192092896 1.13999998569488525
-0.104999996721744537 0.155000001192092896 1.13999998569488525
-0.104999996721744537 -0.155000001192092896 1.13999998569488525
0.104999996721744537 0.224999994039535522 -0.800000011920928955
0.104999996721744537 -0.224999994039535522 -0.800000011920928955
-0.104999996721744537 0.224999994039535522 -0.800000011920928955
-0.104999996721744537 -0.224999994039535522 -0.800000011920928955
0.104999996721744537 0.234999999403953552 -0.795000016689300537
0.104999996721744537 -0.234999999403953552 -0.795000016689300537
-0.104999996721744537 0.234999999403953552 -0.795000016689300537
-0.104999996721744537 -0.234999999403953552 -0.795000016689300537
0.104999996721744537 0.280000001192092896 1.1799999475479126
0.104999996721744537 -0.280000001192092896 1.1799999475479126
-0.104999996721744537 0.280000001192092896 1.1799999475479126
-0.104999996721744537 -0.280000001192092896 1.1799999475479126
0.104999996721744537 0.39500001072883606 -0.675000011920928955
0.104999996721744537 -0.39500001072883606 -0.675000011920928955
-0.104999996721744537 0.39500001072883606 -0.675000011920928955
-0.104999996721744537 -0.39500001072883606 -0.675000011920928955
0.104999996721744537 0.455000013113021851 -0.629999995231628418
0.104999996721744537 -0.455000013113021851 -0.629999995231628418
-0.104999996721744537 0.455000013113021851 -0.629999995231628418
-0.104999996721744537 -0.455000013113021851 -0.629999995231628418
0.104999996721744537 0.469999998807907104 1.22500002384185791
0.104999996721744537 -0.469999998807907104 1.22500002384185791
-0.104999996721744537 0.469999998807907104 1.22500002384185791
-0.104999996721744537 -0.469999998807907104 1.22500002384185791
0.104999996721744537 0.474999994039535522 1.22500002384185791
0.104999996721744537 -0.474999994039535522 1.22500002384185791
-0.104999996721744537 0.474999994039535522 1.22500002384185791
-0.104999996721744537 -0.474999994039535522 1.22500002384185791
0.104999996721744537 0.485000014305114746 1.22500002384185791
0.104999996721744537 -0.485000014305114746 1.22500002384185791
-0.104999996721744537 0.485000014305114746 1.22500002384185791
-0.104999996721744537 -0.485000014305114746 1.22500002384185791
0.104999996721744537 0.490000009536743164 1.22500002384185791
0.104999996721744537 -0.490000009536743164 1.22500002384185791
-0.104999996721744537 0.490000009536743164 1.22500002384185791
-0.104999996721744537 -0.490000009536743164 1.22500002384185791
0.104999996721744537 0.615000009536743164 1.22000002861022949
0.104999996721744537 -0.615000009536743164 1.22000002861022949
-0.104999996721744537 0.615000009536743164 1.22000002861022949
-0.104999996721744537 -0.615000009536743164 1.22000002861022949
0.104999996721744537 0.699999988079071045 -0.405000001192092896
0.104999996721744537 -0.699999988079071045 -0.405000001192092896
-0.104999996721744537 0.699999988079071045 -0.405000001192092896
-0.104999996721744537 -0.699999988079071045 -0.405000001192092896
0.104999996721744537 0.75 -0.349999994039535522
0.104999996721744537 -0.75 -0.349999994039535522
-0.104999996721744537 0.75 -0.349999994039535522
-0.104999996721744537 -0.75 -0.349999994039535522
0.104999996721744537 0.764999985694885254 -0.335000008344650269
0.104999996721744537 -0.764999985694885254 -0.335000008344650269
-0.104999996721744537 0.764999985694885254 -0.335000008344650269
-0.104999996721744537 -0.764999985694885254 -0.335000008344650269
0.104999996721744537 0.925000011920928955 -0.119999997317790985
0.104999996721744537 -0.925000011920928955 -0.119999997317790985
-0.104999996721744537 0.925000011920928955 -0.119999997317790985
-0.104999996721744537 -0.925000011920928955 -0.119999997317790985
0.104999996721744537 0.930000007152557373 -0.109999999403953552
0.104999996721744537 -0.930000007152557373 -0.109999999403953552
-0.104999996721744537 0.930000007152557373 -0.109999999403953552
-0.104999996721744537 -0.930000007152557373 -0.109999999403953552
0.104999996721744537 0.939999997615814209 1.06500005722045898
0.104999996721744537 -0.939999997615814209 1.06500005722045898
-0.104999996721744537 0.939999997615814209 1.06500005722045898
-0.104999996721744537 -0.939999997615814209 1.06500005722045898
0.104999996721744537 1.04999995231628418 0.889999985694885254
0.104999996721744537 -1.04999995231628418 0.889999985694885254
-0.104999996721744537 1.04999995231628418 0.889999985694885254
-0.104999996721744537 -1.04999995231628418 0.889999985694885254
0.104999996721744537 1.05999994277954102 0.845000028610229492
0.104999996721744537 -1.05999994277954102 0.845000028610229492
-0.104999996721744537 1.05999994277954102 0.845000028610229492
-0.104999996721744537 -1.05999994277954102 0.845000028610229492
0.104999996721744537 1.06500005722045898 0.200000002980232239
0.104999996721744537 -1.06500005722045898 0.200000002980232239
-0.104999996721744537 1.06500005722045898 0.200000002980232239
-0.104999996721744537 -1.06500005722045898 0.200000002980232239
0.104999996721744537 1.09500002861022949 0.284999996423721313
0.104999996721744537 -1.09500002861022949 0.284999996423721313
-0.104999996721744537 1.09500002861022949 0.284999996423721313
-0.104999996721744537 -1.09500002861022949 0.284999996423721313
0.104999996721744537 1.10000002384185791 0.300000011920928955
0.104999996721744537 -1.10000002384185791 0.300000011920928955
-0.104999996721744537 1.10000002384185791 0.300000011920928955
-0.104999996721744537 -1.10000002384185791 0.300000011920928955
0.104999996721744537 1.11000001430511475 0.720000028610229492
0.104999996721744537 -1.11000001430511475 0.720000028610229492
-0.104999996721744537 1.11000001430511475 0.720000028610229492
-0.104999996721744537 -1.11000001430511475 0.720000028610229492
0.104999996721744537 1.12000000476837158 0.474999994039535522
0.104999996721744537 -1.12000000476837158 0.474999994039535522
-0.104999996721744537 1.12000000476837158 0.474999994039535522
-0.104999996721744537 -1.12000000476837158 0.474999994039535522
0.109999999403953552 0.129999995231628418 1.12000000476837158
0.109999999403953552 -0.129999995231628418 1.12000000476837158
-0.109999999403953552 0.129999995231628418 1.12000000476837158
-0.109999999403953552 -0.129999995231628418 1.12000000476837158
0.109999999403953552 0.144999995827674866 -0.845000028610229492
0.109999999403953552 -0.144999995827674866 -0.845000028610229492
-0.109999999403953552 0.144999995827674866 -0.845000028610229492
-0.109999999403953552 -0.144999995827674866 -0.845000028610229492
0.109999999403953552 0.159999996423721313 -0.834999978542327881
0.109999999403953552 -0.159999996423721313 -0.834999978542327881
-0.109999999403953552 0.159999996423721313 -0.834999978542327881
-0.109999999403953552 -0.159999996423721313 -0.834999978542327881
0.109999999403953552 0.194999992847442627 -0.814999997615814209
0.109999999403953552 -0.194999992847442627 -0.814999997615814209
-0.109999999403953552 0.194999992847442627 -0.814999997615814209
-0.109999999403953552 -0.194999992847442627 -0.814999997615814209
0.109999999403953552 0.204999998211860657 -0.810000002384185791
0.109999999403953552 -0.204999998211860657 -0.810000002384185791
-0.109999999403953552 0.204999998211860657 -0.810000002384185791
-0.109999999403953552 -0.204999998211860657 -0.810000002384185791
0.109999999403953552 0.289999991655349731 -0.75
0.109999999403953552 -0.289999991655349731 -0.75
-0.109999999403953552 0.289999991655349731 -0.75
-0.109999999403953552 -0.289999991655349731 -0.75
0.109999999403953552 0.305000007152557373 -0.740000009536743164
0.109999999403953552 -0.305000007152557373 -0.740000009536743164
-0.109999999403953552 0.305000007152557373 -0.740000009536743164
-0.109999999403953552 -0.305000007152557373 -0.740000009536743164
0.109999999403953552 0.360000014305114746 -0.699999988079071045
0.109999999403953552 -0.360000014305114746 -0.699999988079071045
-0.109999999403953552 0.360000014305114746 -0.699999988079071045
-0.109999999403953552 -0.360000014305114746 -0.699999988079071045
0.109999999403953552 0.365000009536743164 1.21000003814697266
0.109999999403953552 -0.365000009536743164 1.21000003814697266
-0.109999999403953552 0.365000009536743164 1.21000003814697266
-0.109999999403953552 -0.365000009536743164 1.21000003814697266
0.109999999403953552 0.405000001192092896 -0.665000021457672119
0.109999999403953552 -0.405000001192092896 -0.665000021457672119
-0.109999999403953552 0.405000001192092896 -0.665000021457672119
-0.109999999403953552 -0.405000001192092896 -0.665000021457672119
0.109999999403953552 0.405000001192092896 1.22000002861022949
0.109999999403953552 -0.405000001192092896 1.22000002861022949
-0.109999999403953552 0.405000001192092896 1.22000002861022949
-0.109999999403953552 -0.405000001192092896 1.22000002861022949
0.109999999403953552 0.460000008344650269 -0.625
0.109999999403953552 -0.460000008344650269 -0.625
-0.109999999403953552 0.460000008344650269 -0.625
-0.109999999403953552 -0.460000008344650269 -0.625
0.109999999403953552 0.595000028610229492 1.22000002861022949
0.109999999403953552 -0.595000028610229492 1.22000002861022949
-0.109999999403953552 0.595000028610229492 1.22000002861022949
-0.109999999403953552 -0.595000028610229492 1.22000002861022949
0.109999999403953552 0.629999995231628418 -0.47999998927116394
0.109999999403953552 -0.629999995231628418 -0.47999998927116394
-0.109999999403953552 0.629999995231628418 -0.47999998927116394
-0.109999999403953552 -0.629999995231628418 -0.47999998927116394
0.109999999403953552 0.654999971389770508 -0.449999988079071045
0.109999999403953552 -0.654999971389770508 -0.449999988079071045
-0.109999999403953552 0.654999971389770508 -0.449999988079071045
-0.109999999403953552 -0.654999971389770508 -0.449999988079071045
0.109999999403953552 0.660000026226043701 -0.444999992847442627
0.109999999403953552 -0.660000026226043701 -0.444999992847442627
-0.109999999403953552 0.660000026226043701 -0.444999992847442627
-0.109999999403953552 -0.660000026226043701 -0.444999992847442627
0.109999999403953552 0.694999992847442627 1.20000004768371582
0.109999999403953552 -0.694999992847442627 1.20000004768371582
-0.109999999403953552 0.694999992847442627 1.20000004768371582
-0.109999999403953552 -0.694999992847442627 1.20000004768371582
0.109999999403953552 0.754999995231628418 1.17499995231628418
0.109999999403953552 -0.754999995231628418 1.17499995231628418
-0.109999999403953552 0.754999995231628418 1.17499995231628418
-0.109999999403953552 -0.754999995231628418 1.17499995231628418
0.109999999403953552 0.800000011920928955 -0.300000011920928955
0.109999999403953552 -0.800000011920928955 -0.300000011920928955
-0.109999999403953552 0.800000011920928955 -0.300000011920928955
-0.109999999403953552 -0.800000011920928955 -0.300000011920928955
0.109999999403953552 0.814999997615814209 -0.27000001072883606
0.109999999403953552 -0.814999997615814209 -0.27000001072883606
-0.109999999403953552 0.814999997615814209 -0.27000001072883606
-0.109999999403953552 -0.814999997615814209 -0.27000001072883606
0.109999999403953552 0.855000019073486328 -0.209999993443489075
0.109999999403953552 -0.855000019073486328 -0.209999993443489075
-0.109999999403953552 0.855000019073486328 -0.209999993443489075
-0.109999999403953552 -0.855000019073486328 -0.209999993443489075
0.109999999403953552 0.904999971389770508 1.10500001907348633
0.109999999403953552 -0.904999971389770508 1.10500001907348633
-0.109999999403953552 0.904999971389770508 1.10500001907348633
-0.109999999403953552 -0.904999971389770508 1.10500001907348633
0.109999999403953552 0.939999997615814209 1.06500005722045898
0.109999999403953552 -0.939999997615814209 1.06500005722045898
-0.109999999403953552 0.939999997615814209 1.06500005722045898
-0.109999999403953552 -0.939999997615814209 1.06500005722045898
0.109999999403953552 0.985000014305114746 1.00999999046325684
0.109999999403953552 -0.985000014305114746 1.00999999046325684
-0.109999999403953552 0.985000014305114746 1.00999999046325684
-0.109999999403953552 -0.985000014305114746 1.00999999046325684
0.109999999403953552 1.00499999523162842 0.970000028610229492
0.109999999403953552 -1.00499999523162842 0.970000028610229492
-0.109999999403953552 1.00499999523162842 0.970000028610229492
-0.109999999403953552 -1.00499999523162842 0.970000028610229492
0.109999999403953552 1.01999998092651367 0.0750000029802322388
0.109999999403953552 -1.01999998092651367 0.0750000029802322388
-0.109999999403953552 1.01999998092651367 0.0750000029802322388
-0.109999999403953552 -1.01999998092651367 0.0750000029802322388
0.109999999403953552 1.04499995708465576 0.125
0.109999999403953552 -1.04499995708465576 0.125
-0.109999999403953552 1.04499995708465576 0.125
-0.109999999403953552 -1.04499995708465576 0.125
0.109999999403953552 1.0549999475479126 0.165000006556510925
0.109999999403953552 -1.0549999475479126 0.165000006556510925
-0.109999999403953552 1.0549999475479126 0.165000006556510925
-0.109999999403953552 -1.0549999475479126 0.165000006556510925
0.109999999403953552 1.10500001907348633 0.75
0.109999999403953552 -1.10500001907348633 0.75
-0.109999999403953552 1.10500001907348633 0.75
-0.109999999403953552 -1.10500001907348633 0.75
0.109999999403953552 1.11000001430511475 0.360000014305114746
0.109999999403953552 -1.11000001430511475 0.360000014305114746
-0.109999999403953552 1.11000001430511475 0.360000014305114746
-0.109999999403953552 -1.11000001430511475 0.360000014305114746
0.109999999403953552 1.11000001430511475 0.720000028610229492
0.109999999403953552 -1.11000001430511475 0.720000028610229492
-0.109999999403953552 1.11000001430511475 0.720000028610229492
-0.109999999403953552 -1.11000001430511475 0.720000028610229492
0.109999999403953552 1.12000000476837158 0.47999998927116394
0.109999999403953552 -1.12000000476837158 0.47999998927116394
-0.109999999403953552 1.12000000476837158 0.47999998927116394
-0.109999999403953552 -1.12000000476837158 0.47999998927116394
0.109999999403953552 1.12000000476837158 0.584999978542327881
0.109999999403953552 -1.12000000476837158 0.584999978542327881
-0.109999999403953552 1.12000000476837158 0.584999978542327881
-0.109999999403953552 -1.12000000476837158 0.584999978542327881
0.115000002086162567 0.0350000001490116119 -0.920000016689300537
0.115000002086162567 -0.0350000001490116119 -0.920000016689300537
-0.115000002086162567 0.0350000001490116119 -0.920000016689300537
-0.115000002086162567 -0.0350000001490116119 -0.920000016689300537
0.115000002086162567 0.150000005960464478 1.13499999046325684
0.115000002086162567 -0.150000005960464478 1.13499999046325684
-0.115000002086162567 0.150000005960464478 1.13499999046325684
-0.115000002086162567 -0.150000005960464478 1.13499999046325684
0.115000002086162567 0.465000003576278687 -0.620000004768371582
0.115000002086162567 -0.465000003576278687 -0.620000004768371582
-0.115000002086162567 0.465000003576278687 -0.620000004768371582
-0.115000002086162567 -0.465000003576278687 -0.620000004768371582
0.115000002086162567 0.555000007152557373 -0.550000011920928955
0.115000002086162567 -0.555000007152557373 -0.550000011920928955
-0.115000002086162567 0.555000007152557373 -0.550000011920928955
-0.115000002086162567 -0.555000007152557373 -0.550000011920928955
0.115000002086162567 0.574999988079071045 1.22000002861022949
0.115000002086162567 -0.574999988079071045 1.22000002861022949
-0.115000002086162567 0.574999988079071045 1.22000002861022949
-0.115000002086162567 -0.574999988079071045 1.22000002861022949
0.115000002086162567 0.644999980926513672 -0.460000008344650269
0.115000002086162567 -0.644999980926513672 -0.460000008344650269
-0.115000002086162567 0.644999980926513672 -0.460000008344650269
-0.115000002086162567 -0.644999980926513672 -0.460000008344650269
0.115000002086162567 0.77499997615814209 1.16999995708465576
0.115000002086162567 -0.77499997615814209 1.16999995708465576
-0.115000002086162567 0.77499997615814209 1.16999995708465576
-0.115000002086162567 -0.77499997615814209 1.16999995708465576
0.115000002086162567 0.795000016689300537 -0.305000007152557373
0.115000002086162567 -0.795000016689300537 -0.305000007152557373
-0.115000002086162567 0.795000016689300537 -0.305000007152557373
-0.115000002086162567 -0.795000016689300537 -0.305000007152557373
0.115000002086162567 0.829999983310699463 -0.234999999403953552
0.115000002086162567 -0.829999983310699463 -0.234999999403953552
-0.115000002086162567 0.829999983310699463 -0.234999999403953552
-0.115000002086162567 -0.829999983310699463 -0.234999999403953552
0.115000002086162567 0.904999971389770508 -0.144999995827674866
0.115000002086162567 -0.904999971389770508 -0.144999995827674866
-0.115000002086162567 0.904999971389770508 -0.144999995827674866
-0.115000002086162567 -0.904999971389770508 -0.144999995827674866
0.115000002086162567 0.935000002384185791 1.07500004768371582
0.115000002086162567 -0.935000002384185791 1.07500004768371582
-0.115000002086162567 0.935000002384185791 1.07500004768371582
-0.115000002086162567 -0.935000002384185791 1.07500004768371582
0.115000002086162567 0.990000009536743164 0.00999999977648258209
0.115000002086162567 -0.990000009536743164 0.00999999977648258209
-0.115000002086162567 0.990000009536743164 0.00999999977648258209
-0.115000002086162567 -0.990000009536743164 0.00999999977648258209
0.115000002086162567 1 0.0350000001490116119
0.115000002086162567 -1 0.0350000001490116119
-0.115000002086162567 1 0.0350000001490116119
-0.115000002086162567 -1 0.0350000001490116119
0.115000002086162567 1.00499999523162842 0.964999973773956299
0.115000002086162567 -1.00499999523162842 0.964999973773956299
-0.115000002086162567 1.00499999523162842 0.964999973773956299
-0.115000002086162567 -1.00499999523162842 0.964999973773956299
0.115000002086162567 1.00999999046325684 0.0599999986588954926
0.115000002086162567 -1.00999999046325684 0.0599999986588954926
-0.115000002086162567 1.00999999046325684 0.0599999986588954926
-0.115000002086162567 -1.00999999046325684 0.0599999986588954926
0.115000002086162567 1.03999996185302734 0.910000026226043701
0.115000002086162567 -1.03999996185302734 0.910000026226043701
-0.115000002086162567 1.03999996185302734 0.910000026226043701
-0.115000002086162567 -1.03999996185302734 0.910000026226043701
0.115000002086162567 1.0549999475479126 0.845000028610229492
0.115000002086162567 -1.0549999475479126 0.845000028610229492
-0.115000002086162567 1.0549999475479126 0.845000028610229492
-0.115000002086162567 -1.0549999475479126 0.845000028610229492
0.115000002086162567 1.07500004768371582 0.810000002384185791
0.115000002086162567 -1.07500004768371582 0.810000002384185791
-0.115000002086162567 1.07500004768371582 0.810000002384185791
-0.115000002086162567 -1.07500004768371582 0.810000002384185791
0.115000002086162567 1.08500003814697266 0.264999985694885254
0.115000002086162567 -1.08500003814697266 0.264999985694885254
-0.115000002086162567 1.08500003814697266 0.264999985694885254
-0.115000002086162567 -1.08500003814697266 0.264999985694885254
0.115000002086162567 1.09500002861022949 0.289999991655349731
0.115000002086162567 -1.09500002861022949 0.289999991655349731
-0.115000002086162567 1.09500002861022949 0.289999991655349731
-0.115000002086162567 -1.09500002861022949 0.289999991655349731
0.115000002086162567 1.11000001430511475 0.720000028610229492
0.115000002086162567 -1.11000001430511475 0.720000028610229492
-0.115000002086162567 1.11000001430511475 0.720000028610229492
-0.115000002086162567 -1.11000001430511475 0.720000028610229492
0.115000002086162567 1.12000000476837158 0.485000014305114746
0.115000002086162567 -1.12000000476837158 0.485000014305114746
-0.115000002086162567 1.12000000476837158 0.485000014305114746
-0.115000002086162567 -1.12000000476837158 0.485000014305114746
0.119999997317790985 0.0149999996647238731 1.04999995231628418
0.119999997317790985 -0.0149999996647238731 1.04999995231628418
-0.119999997317790985 0.0149999996647238731 1.04999995231628418
-0.119999997317790985 -0.0149999996647238731 1.04999995231628418
0.119999997317790985 0.0450000017881393433 -0.915000021457672119
0.119999997317790985 -0.0450000017881393433 -0.915000021457672119
-0.119999997317790985 0.0450000017881393433 -0.915000021457672119
-0.119999997317790985 -0.0450000017881393433 -0.915000021457672119
0.119999997317790985 0.115000002086162567 1.11000001430511475
0.119999997317790985 -0.115000002086162567 1.11000001430511475
-0.119999997317790985 0.115000002086162567 1.11000001430511475
-0.119999997317790985 -0.115000002086162567 1.11000001430511475
0.119999997317790985 0.219999998807907104 1.16499996185302734
