ply
format ascii 1.0
element vertex 769
comment vertices
property float x
property float y
property float z
end_header
-0.699999988079071045 -0.25 0.170000001788139343
-0.699999988079071045 -0.25 0.360000014305114746
-0.699999988079071045 -0.200000002980232239 0.100000001490116119
-0.699999988079071045 -0.200000002980232239 0.370000004768371582
-0.699999988079071045 -0.150000005960464478 0.0700000002980232239
-0.699999988079071045 -0.150000005960464478 0.389999985694885254
-0.699999988079071045 -0.100000001490116119 0.0299999993294477463
-0.699999988079071045 -0.100000001490116119 0.409999996423721313
-0.699999988079071045 -0.0500000007450580597 -0.0299999993294477463
-0.699999988079071045 -0.0500000007450580597 0.409999996423721313
-0.699999988079071045 -1.06581410364015028e-14 -0.0700000002980232239
-0.699999988079071045 -1.06581410364015028e-14 0.159999996423721313
-0.699999988079071045 -1.06581410364015028e-14 0.209999993443489075
-0.699999988079071045 -1.06581410364015028e-14 0.400000005960464478
-0.699999988079071045 0.0500000007450580597 -0.0199999995529651642
-0.699999988079071045 0.0500000007450580597 0.409999996423721313
-0.699999988079071045 0.100000001490116119 0.0500000007450580597
-0.699999988079071045 0.100000001490116119 0.400000005960464478
-0.699999988079071045 0.150000005960464478 0.0700000002980232239
-0.699999988079071045 0.150000005960464478 0.379999995231628418
-0.699999988079071045 0.200000002980232239 0.0799999982118606567
-0.699999988079071045 0.200000002980232239 0.360000014305114746
-0.699999988079071045 0.25 0.119999997317790985
-0.699999988079071045 0.25 0.310000002384185791
-0.64999997615814209 -0.5 0.259999990463256836
-0.64999997615814209 -0.449999988079071045 0.100000001490116119
-0.64999997615814209 -0.449999988079071045 0.519999980926513672
-0.64999997615814209 -0.400000005960464478 0.0299999993294477463
-0.64999997615814209 -0.400000005960464478 0.569999992847442627
-0.64999997615814209 -0.349999994039535522 -0.0599999986588954926
-0.64999997615814209 -0.349999994039535522 0.60000002384185791
-0.64999997615814209 -0.25 -0.159999996423721313
-0.64999997615814209 -0.25 0.60000002384185791
-0.64999997615814209 -0.200000002980232239 -0.170000001788139343
-0.64999997615814209 -0.150000005960464478 -0.200000002980232239
-0.64999997615814209 -0.0500000007450580597 -0.230000004172325134
-0.64999997615814209 -0.0500000007450580597 0.589999973773956299
-0.64999997615814209 0.0500000007450580597 0.589999973773956299
-0.64999997615814209 0.100000001490116119 0.589999973773956299
-0.64999997615814209 0.150000005960464478 -0.209999993443489075
-0.64999997615814209 0.25 0.60000002384185791
-0.64999997615814209 0.349999994039535522 -0.0199999995529651642
-0.64999997615814209 0.400000005960464478 0.560000002384185791
-0.64999997615814209 0.449999988079071045 0.100000001490116119
-0.64999997615814209 0.449999988079071045 0.519999980926513672
-0.64999997615814209 0.5 0.259999990463256836
-0.60000002384185791 -0.550000011920928955 0.0399999991059303284
-0.60000002384185791 -0.550000011920928955 0.680000007152557373
-0.60000002384185791 -0.5 0.699999988079071045
-0.60000002384185791 -0.449999988079071045 0.720000028610229492
-0.60000002384185791 -0.400000005960464478 -0.159999996423721313
-0.60000002384185791 -0.349999994039535522 -0.209999993443489075
-0.60000002384185791 -0.300000011920928955 -0.259999990463256836
-0.60000002384185791 -0.25 0.740000009536743164
-0.60000002384185791 -0.200000002980232239 -0.319999992847442627
-0.60000002384185791 -0.200000002980232239 0.740000009536743164
-0.60000002384185791 -0.150000005960464478 -0.349999994039535522
-0.60000002384185791 -0.150000005960464478 0.740000009536743164
-0.60000002384185791 -0.100000001490116119 -0.379999995231628418
-0.60000002384185791 -0.100000001490116119 0.740000009536743164
-0.60000002384185791 -0.0500000007450580597 -0.389999985694885254
-0.60000002384185791 0.0500000007450580597 0.730000019073486328
-0.60000002384185791 0.100000001490116119 -0.379999995231628418
-0.60000002384185791 0.150000005960464478 0.740000009536743164
-0.60000002384185791 0.200000002980232239 -0.319999992847442627
-0.60000002384185791 0.25 0.75
-0.60000002384185791 0.400000005960464478 -0.170000001788139343
-0.60000002384185791 0.449999988079071045 0.709999978542327881
-0.60000002384185791 0.5 -0.0399999991059303284
-0.60000002384185791 0.550000011920928955 0.670000016689300537
-0.550000011920928955 -0.75 0.300000011920928955
-0.550000011920928955 -0.75 0.389999985694885254
-0.550000011920928955 -0.75 0.449999988079071045
-0.550000011920928955 -0.64999997615814209 0.0399999991059303284
-0.550000011920928955 -0.64999997615814209 0.730000019073486328
-0.550000011920928955 -0.60000002384185791 0.790000021457672119
-0.550000011920928955 -0.5 -0.180000007152557373
-0.550000011920928955 -0.5 0.829999983310699463
-0.550000011920928955 -0.400000005960464478 -0.280000001192092896
-0.550000011920928955 -0.349999994039535522 0.85000002384185791
-0.550000011920928955 -0.300000011920928955 0.85000002384185791
-0.550000011920928955 -0.200000002980232239 0.85000002384185791
-0.550000011920928955 -0.100000001490116119 0.810000002384185791
-0.550000011920928955 -0.0500000007450580597 -0.490000009536743164
-0.550000011920928955 -1.06581410364015028e-14 -0.5
-0.550000011920928955 0.0500000007450580597 -0.490000009536743164
-0.550000011920928955 0.200000002980232239 0.85000002384185791
-0.550000011920928955 0.25 -0.389999985694885254
-0.550000011920928955 0.300000011920928955 0.85000002384185791
-0.550000011920928955 0.349999994039535522 -0.319999992847442627
-0.550000011920928955 0.400000005960464478 -0.280000001192092896
-0.550000011920928955 0.449999988079071045 -0.230000004172325134
-0.550000011920928955 0.5 -0.180000007152557373
-0.550000011920928955 0.5 0.829999983310699463
-0.550000011920928955 0.550000011920928955 -0.119999997317790985
-0.550000011920928955 0.60000002384185791 0.790000021457672119
-0.550000011920928955 0.699999988079071045 0.150000005960464478
-0.550000011920928955 0.75 0.389999985694885254
-0.550000011920928955 0.75 0.449999988079071045
-0.5 -0.800000011920928955 0.219999998807907104
-0.5 -0.800000011920928955 0.64999997615814209
-0.5 -0.75 0.0799999982118606567
-0.5 -0.699999988079071045 -0.0199999995529651642
-0.5 -0.64999997615814209 0.860000014305114746
-0.5 -0.550000011920928955 -0.219999998807907104
-0.5 -0.300000011920928955 0.930000007152557373
-0.5 -0.200000002980232239 0.910000026226043701
-0.5 -0.150000005960464478 0.89999997615814209
-0.5 -0.100000001490116119 0.879999995231628418
-0.5 -1.06581410364015028e-14 -0.589999973773956299
-0.5 0.200000002980232239 0.910000026226043701
-0.5 0.25 -0.469999998807907104
-0.5 0.300000011920928955 0.930000007152557373
-0.5 0.349999994039535522 0.930000007152557373
-0.5 0.400000005960464478 0.939999997615814209
-0.5 0.5 -0.27000001072883606
-0.5 0.550000011920928955 0.910000026226043701
-0.5 0.60000002384185791 0.910000026226043701
-0.5 0.64999997615814209 0.860000014305114746
-0.5 0.75 0.0900000035762786865
-0.5 0.800000011920928955 0.23999999463558197
-0.5 0.800000011920928955 0.64999997615814209
-0.449999988079071045 -0.89999997615814209 0.419999986886978149
-0.449999988079071045 -0.89999997615814209 0.60000002384185791
-0.449999988079071045 -0.85000002384185791 0.180000007152557373
-0.449999988079071045 -0.85000002384185791 0.720000028610229492
-0.449999988079071045 -0.800000011920928955 0.810000002384185791
-0.449999988079071045 -0.75 -0.0299999993294477463
-0.449999988079071045 -0.64999997615814209 0.939999997615814209
-0.449999988079071045 -0.60000002384185791 -0.23999999463558197
-0.449999988079071045 -0.550000011920928955 -0.289999991655349731
-0.449999988079071045 -0.5 -0.340000003576278687
-0.449999988079071045 -0.5 0.990000009536743164
-0.449999988079071045 -0.449999988079071045 -0.389999985694885254
-0.449999988079071045 -0.449999988079071045 1
-0.449999988079071045 -0.349999994039535522 -0.469999998807907104
-0.449999988079071045 -0.300000011920928955 -0.519999980926513672
-0.449999988079071045 -0.150000005960464478 -0.60000002384185791
-0.449999988079071045 -0.100000001490116119 -0.620000004768371582
-0.449999988079071045 -0.0500000007450580597 -0.639999985694885254
-0.449999988079071045 0.0500000007450580597 -0.639999985694885254
-0.449999988079071045 0.150000005960464478 -0.60000002384185791
-0.449999988079071045 0.25 0.980000019073486328
-0.449999988079071045 0.300000011920928955 -0.509999990463256836
-0.449999988079071045 0.449999988079071045 -0.389999985694885254
-0.449999988079071045 0.5 0.990000009536743164
-0.449999988079071045 0.550000011920928955 0.980000019073486328
-0.449999988079071045 0.64999997615814209 0.939999997615814209
-0.449999988079071045 0.800000011920928955 0.810000002384185791
-0.449999988079071045 0.85000002384185791 0.189999997615814209
-0.449999988079071045 0.85000002384185791 0.720000028610229492
-0.449999988079071045 0.89999997615814209 0.370000004768371582
-0.449999988079071045 0.89999997615814209 0.60000002384185791
-0.400000005960464478 -0.949999988079071045 0.349999994039535522
-0.400000005960464478 -0.949999988079071045 0.540000021457672119
-0.400000005960464478 -0.800000011920928955 -0.0299999993294477463
-0.400000005960464478 -0.699999988079071045 -0.189999997615814209
-0.400000005960464478 -0.699999988079071045 0.980000019073486328
-0.400000005960464478 -0.64999997615814209 1.00999999046325684
-0.400000005960464478 -0.5 -0.400000005960464478
-0.400000005960464478 -0.449999988079071045 -0.449999988079071045
-0.400000005960464478 -0.449999988079071045 1.05999994277954102
-0.400000005960464478 -0.400000005960464478 -0.490000009536743164
-0.400000005960464478 -0.200000002980232239 -0.629999995231628418
-0.400000005960464478 -0.200000002980232239 1.00999999046325684
-0.400000005960464478 -0.100000001490116119 -0.680000007152557373
-0.400000005960464478 -0.0500000007450580597 -0.699999988079071045
-0.400000005960464478 -1.06581410364015028e-14 -0.709999978542327881
-0.400000005960464478 -1.06581410364015028e-14 0.959999978542327881
-0.400000005960464478 0.0500000007450580597 -0.699999988079071045
-0.400000005960464478 0.100000001490116119 -0.680000007152557373
-0.400000005960464478 0.100000001490116119 0.980000019073486328
-0.400000005960464478 0.200000002980232239 -0.629999995231628418
-0.400000005960464478 0.200000002980232239 1.00999999046325684
-0.400000005960464478 0.25 1.02999997138977051
-0.400000005960464478 0.300000011920928955 1.04999995231628418
-0.400000005960464478 0.449999988079071045 1.05999994277954102
-0.400000005960464478 0.64999997615814209 1.00999999046325684
-0.400000005960464478 0.699999988079071045 0.980000019073486328
-0.400000005960464478 0.75 -0.129999995231628418
-0.400000005960464478 0.85000002384185791 0.0700000002980232239
-0.400000005960464478 0.89999997615814209 0.189999997615814209
-0.400000005960464478 0.89999997615814209 0.730000019073486328
-0.400000005960464478 0.949999988079071045 0.419999986886978149
-0.400000005960464478 0.949999988079071045 0.589999973773956299
-0.349999994039535522 -1 0.460000008344650269
-0.349999994039535522 -1 0.569999992847442627
-0.349999994039535522 -0.949999988079071045 0.219999998807907104
-0.349999994039535522 -0.89999997615814209 0.0700000002980232239
-0.349999994039535522 -0.89999997615814209 0.879999995231628418
-0.349999994039535522 -0.800000011920928955 0.970000028610229492
-0.349999994039535522 -0.699999988079071045 -0.25
-0.349999994039535522 -0.5 -0.449999988079071045
-0.349999994039535522 -0.150000005960464478 1.02999997138977051
-0.349999994039535522 -0.0500000007450580597 1
-0.349999994039535522 0.0500000007450580597 1
-0.349999994039535522 0.100000001490116119 1.00999999046325684
-0.349999994039535522 0.25 -0.639999985694885254
-0.349999994039535522 0.349999994039535522 -0.579999983310699463
-0.349999994039535522 0.349999994039535522 1.10000002384185791
-0.349999994039535522 0.550000011920928955 -0.400000005960464478
-0.349999994039535522 0.550000011920928955 1.10000002384185791
-0.349999994039535522 0.64999997615814209 -0.300000011920928955
-0.349999994039535522 0.64999997615814209 1.05999994277954102
-0.349999994039535522 0.800000011920928955 -0.119999997317790985
-0.349999994039535522 0.800000011920928955 0.970000028610229492
-0.349999994039535522 0.85000002384185791 -0.0399999991059303284
-0.349999994039535522 0.89999997615814209 0.879999995231628418
-0.349999994039535522 0.949999988079071045 0.200000002980232239
-0.349999994039535522 0.949999988079071045 0.759999990463256836
-0.349999994039535522 1 0.460000008344650269
-0.349999994039535522 1 0.569999992847442627
-0.300000011920928955 -1.04999995231628418 0.519999980926513672
-0.300000011920928955 -1.04999995231628418 0.550000011920928955
-0.300000011920928955 -1 0.25
-0.300000011920928955 -1 0.699999988079071045
-0.300000011920928955 -0.949999988079071045 0.100000001490116119
-0.300000011920928955 -0.949999988079071045 0.860000014305114746
-0.300000011920928955 -0.85000002384185791 -0.0900000035762786865
-0.300000011920928955 -0.800000011920928955 1.01999998092651367
-0.300000011920928955 -0.64999997615814209 1.11000001430511475
-0.300000011920928955 -0.5 1.12999999523162842
-0.300000011920928955 -0.349999994039535522 1.12000000476837158
-0.300000011920928955 -0.300000011920928955 1.12000000476837158
-0.300000011920928955 -0.200000002980232239 1.08000004291534424
-0.300000011920928955 -0.150000005960464478 1.05999994277954102
-0.300000011920928955 0.100000001490116119 -0.769999980926513672
-0.300000011920928955 0.150000005960464478 1.05999994277954102
-0.300000011920928955 0.200000002980232239 -0.720000028610229492
-0.300000011920928955 0.200000002980232239 1.08000004291534424
-0.300000011920928955 0.400000005960464478 1.12000000476837158
-0.300000011920928955 0.5 1.12999999523162842
-0.300000011920928955 0.64999997615814209 -0.349999994039535522
-0.300000011920928955 0.64999997615814209 1.11000001430511475
-0.300000011920928955 0.699999988079071045 -0.300000011920928955
-0.300000011920928955 0.75 -0.23999999463558197
-0.300000011920928955 0.800000011920928955 -0.180000007152557373
-0.300000011920928955 0.800000011920928955 1.01999998092651367
-0.300000011920928955 0.85000002384185791 -0.0900000035762786865
-0.300000011920928955 0.949999988079071045 0.860000014305114746
-0.300000011920928955 1 0.23999999463558197
-0.300000011920928955 1.04999995231628418 0.519999980926513672
-0.300000011920928955 1.04999995231628418 0.550000011920928955
-0.25 -1.04999995231628418 0.330000013113021851
-0.25 -1.04999995231628418 0.689999997615814209
-0.25 -1 0.180000007152557373
-0.25 -0.949999988079071045 0.0299999993294477463
-0.25 -0.85000002384185791 1.03999996185302734
-0.25 -0.699999988079071045 -0.340000003576278687
-0.25 -0.400000005960464478 1.15999996662139893
-0.25 -0.300000011920928955 1.14999997615814209
-0.25 -0.200000002980232239 -0.75
-0.25 -0.150000005960464478 -0.779999971389770508
-0.25 -0.100000001490116119 -0.810000002384185791
-0.25 -0.100000001490116119 1.05999994277954102
-0.25 0.100000001490116119 1.05999994277954102
-0.25 0.150000005960464478 -0.779999971389770508
-0.25 0.300000011920928955 1.14999997615814209
-0.25 0.349999994039535522 -0.639999985694885254
-0.25 0.400000005960464478 -0.620000004768371582
-0.25 0.400000005960464478 1.15999996662139893
-0.25 0.699999988079071045 -0.340000003576278687
-0.25 0.800000011920928955 -0.230000004172325134
-0.25 0.85000002384185791 -0.140000000596046448
-0.25 0.85000002384185791 1.03999996185302734
-0.25 0.949999988079071045 0.0199999995529651642
-0.25 1 0.159999996423721313
-0.25 1.04999995231628418 0.330000013113021851
-0.25 1.04999995231628418 0.699999988079071045
-0.200000002980232239 -1.04999995231628418 0.230000004172325134
-0.200000002980232239 -1.04999995231628418 0.779999971389770508
-0.200000002980232239 -1 0.889999985694885254
-0.200000002980232239 -0.85000002384185791 1.08000004291534424
-0.200000002980232239 -0.75 -0.310000002384185791
-0.200000002980232239 -0.64999997615814209 -0.430000007152557373
-0.200000002980232239 -0.60000002384185791 -0.47999998927116394
-0.200000002980232239 -0.449999988079071045 1.19000005722045898
-0.200000002980232239 -0.300000011920928955 -0.720000028610229492
-0.200000002980232239 -0.200000002980232239 1.12999999523162842
-0.200000002980232239 -0.100000001490116119 1.08000004291534424
-0.200000002980232239 -1.06581410364015028e-14 -0.879999995231628418
-0.200000002980232239 0.200000002980232239 1.12999999523162842
-0.200000002980232239 0.300000011920928955 1.16999995708465576
-0.200000002980232239 0.400000005960464478 -0.639999985694885254
-0.200000002980232239 0.449999988079071045 1.19000005722045898
-0.200000002980232239 0.699999988079071045 -0.360000014305114746
-0.200000002980232239 0.800000011920928955 1.11000001430511475
-0.200000002980232239 0.85000002384185791 1.08000004291534424
-0.200000002980232239 1 0.889999985694885254
-0.200000002980232239 1.04999995231628418 0.790000021457672119
-0.200000002980232239 1.10000002384185791 0.60000002384185791
-0.150000005960464478 -1.10000002384185791 0.360000014305114746
-0.150000005960464478 -1.10000002384185791 0.730000019073486328
-0.150000005960464478 -1.04999995231628418 0.180000007152557373
-0.150000005960464478 -1 0.0500000007450580597
-0.150000005960464478 -1 0.939999997615814209
-0.150000005960464478 -0.949999988079071045 1.01999998092651367
-0.150000005960464478 -0.89999997615814209 -0.129999995231628418
-0.150000005960464478 -0.64999997615814209 -0.449999988079071045
-0.150000005960464478 -0.60000002384185791 1.20000004768371582
-0.150000005960464478 -0.5 -0.579999983310699463
-0.150000005960464478 -0.5 1.22000002861022949
-0.150000005960464478 -0.449999988079071045 -0.620000004768371582
-0.150000005960464478 -0.400000005960464478 1.20000004768371582
-0.150000005960464478 -0.200000002980232239 1.14999997615814209
-0.150000005960464478 -1.06581410364015028e-14 -0.910000026226043701
-0.150000005960464478 0.100000001490116119 -0.860000014305114746
-0.150000005960464478 0.200000002980232239 1.14999997615814209
-0.150000005960464478 0.300000011920928955 -0.740000009536743164
-0.150000005960464478 0.300000011920928955 1.1799999475479126
-0.150000005960464478 0.349999994039535522 -0.699999988079071045
-0.150000005960464478 0.349999994039535522 1.19000005722045898
-0.150000005960464478 0.449999988079071045 -0.620000004768371582
-0.150000005960464478 0.5 -0.579999983310699463
-0.150000005960464478 0.5 1.22000002861022949
-0.150000005960464478 0.550000011920928955 -0.529999971389770508
-0.150000005960464478 0.60000002384185791 1.20000004768371582
-0.150000005960464478 0.800000011920928955 -0.27000001072883606
-0.150000005960464478 0.949999988079071045 1.01999998092651367
-0.150000005960464478 1.04999995231628418 0.180000007152557373
-0.150000005960464478 1.10000002384185791 0.349999994039535522
-0.150000005960464478 1.10000002384185791 0.730000019073486328
-0.100000001490116119 -1.10000002384185791 0.289999991655349731
-0.100000001490116119 -1.10000002384185791 0.779999971389770508
-0.100000001490116119 -1.04999995231628418 0.150000005960464478
-0.100000001490116119 -0.800000011920928955 -0.300000011920928955
-0.100000001490116119 -0.800000011920928955 1.15999996662139893
-0.100000001490116119 -0.64999997615814209 1.22000002861022949
-0.100000001490116119 -0.5 -0.60000002384185791
-0.100000001490116119 -0.400000005960464478 1.22000002861022949
-0.100000001490116119 -0.100000001490116119 -0.879999995231628418
-0.100000001490116119 -0.100000001490116119 1.10000002384185791
-0.100000001490116119 0.0500000007450580597 -0.920000016689300537
-0.100000001490116119 0.200000002980232239 1.15999996662139893
-0.100000001490116119 0.349999994039535522 -0.709999978542327881
-0.100000001490116119 0.400000005960464478 -0.670000016689300537
-0.100000001490116119 0.5 -0.60000002384185791
-0.100000001490116119 0.64999997615814209 -0.460000008344650269
-0.100000001490116119 0.64999997615814209 1.22000002861022949
-0.100000001490116119 0.800000011920928955 1.15999996662139893
-0.100000001490116119 1.04999995231628418 0.140000000596046448
-0.100000001490116119 1.04999995231628418 0.889999985694885254
-0.100000001490116119 1.10000002384185791 0.289999991655349731
-0.100000001490116119 1.10000002384185791 0.779999971389770508
-0.0500000007450580597 -1.10000002384185791 0.25
-0.0500000007450580597 -1.10000002384185791 0.819999992847442627
-0.0500000007450580597 -1.04999995231628418 0.119999997317790985
-0.0500000007450580597 -1.04999995231628418 0.920000016689300537
-0.0500000007450580597 -0.949999988079071045 -0.0900000035762786865
-0.0500000007450580597 -0.89999997615814209 -0.159999996423721313
-0.0500000007450580597 -0.75 -0.360000014305114746
-0.0500000007450580597 -0.75 1.1799999475479126
-0.0500000007450580597 -0.64999997615814209 -0.469999998807907104
-0.0500000007450580597 -0.550000011920928955 1.23000001907348633
-0.0500000007450580597 -0.5 -0.610000014305114746
-0.0500000007450580597 -0.449999988079071045 1.23000001907348633
-0.0500000007450580597 -0.25 1.1799999475479126
-0.0500000007450580597 -0.0500000007450580597 1.05999994277954102
-0.0500000007450580597 0.0500000007450580597 1.05999994277954102
-0.0500000007450580597 0.100000001490116119 -0.889999985694885254
-0.0500000007450580597 0.200000002980232239 -0.819999992847442627
-0.0500000007450580597 0.25 1.1799999475479126
-0.0500000007450580597 0.300000011920928955 -0.75
-0.0500000007450580597 0.449999988079071045 1.23000001907348633
-0.0500000007450580597 0.550000011920928955 -0.560000002384185791
-0.0500000007450580597 0.75 -0.360000014305114746
-0.0500000007450580597 0.75 1.1799999475479126
-0.0500000007450580597 1.04999995231628418 0.119999997317790985
-0.0500000007450580597 1.04999995231628418 0.910000026226043701
-0.0500000007450580597 1.10000002384185791 0.27000001072883606
-1.06581410364015028e-14 -1.04999995231628418 0.109999999403953552
-1.06581410364015028e-14 -1.04999995231628418 0.920000016689300537
-1.06581410364015028e-14 -0.949999988079071045 -0.0900000035762786865
-1.06581410364015028e-14 -0.949999988079071045 1.05999994277954102
-1.06581410364015028e-14 -0.800000011920928955 -0.310000002384185791
-1.06581410364015028e-14 -0.800000011920928955 1.16999995708465576
-1.06581410364015028e-14 -0.75 1.20000004768371582
-1.06581410364015028e-14 -0.60000002384185791 -0.519999980926513672
-1.06581410364015028e-14 -0.550000011920928955 -0.560000002384185791
-1.06581410364015028e-14 -0.400000005960464478 -0.689999997615814209
-1.06581410364015028e-14 -0.349999994039535522 -0.709999978542327881
-1.06581410364015028e-14 -0.25 1.19000005722045898
-1.06581410364015028e-14 -0.150000005960464478 -0.85000002384185791
-1.06581410364015028e-14 -1.06581410364015028e-14 1
-1.06581410364015028e-14 0.100000001490116119 -0.889999985694885254
-1.06581410364015028e-14 0.150000005960464478 -0.85000002384185791
-1.06581410364015028e-14 0.25 1.19000005722045898
-1.06581410364015028e-14 0.400000005960464478 -0.689999997615814209
-1.06581410364015028e-14 0.550000011920928955 -0.560000002384185791
-1.06581410364015028e-14 0.60000002384185791 -0.519999980926513672
-1.06581410364015028e-14 0.60000002384185791 1.23000001907348633
-1.06581410364015028e-14 0.75 1.20000004768371582
-1.06581410364015028e-14 0.800000011920928955 -0.310000002384185791
-1.06581410364015028e-14 0.800000011920928955 1.16999995708465576
-1.06581410364015028e-14 0.949999988079071045 -0.0900000035762786865
-1.06581410364015028e-14 0.949999988079071045 1.05999994277954102
-1.06581410364015028e-14 1.04999995231628418 0.109999999403953552
-1.06581410364015028e-14 1.04999995231628418 0.920000016689300537
-1.06581410364015028e-14 1.10000002384185791 0.25
-1.06581410364015028e-14 1.10000002384185791 0.810000002384185791
0.0500000007450580597 -1.10000002384185791 0.259999990463256836
0.0500000007450580597 -1.10000002384185791 0.810000002384185791
0.0500000007450580597 -1.04999995231628418 0.119999997317790985
0.0500000007450580597 -1.04999995231628418 0.920000016689300537
0.0500000007450580597 -1 0.00999999977648258209
0.0500000007450580597 -0.949999988079071045 -0.0900000035762786865
0.0500000007450580597 -0.89999997615814209 -0.159999996423721313
0.0500000007450580597 -0.75 1.1799999475479126
0.0500000007450580597 -0.64999997615814209 -0.469999998807907104
0.0500000007450580597 -0.550000011920928955 -0.560000002384185791
0.0500000007450580597 -0.449999988079071045 1.23000001907348633
0.0500000007450580597 -0.25 1.1799999475479126
0.0500000007450580597 -0.150000005960464478 -0.85000002384185791
0.0500000007450580597 -0.100000001490116119 1.10000002384185791
0.0500000007450580597 -0.0500000007450580597 1.05999994277954102
0.0500000007450580597 0.0500000007450580597 -0.930000007152557373
0.0500000007450580597 0.100000001490116119 -0.889999985694885254
0.0500000007450580597 0.150000005960464478 -0.85000002384185791
0.0500000007450580597 0.150000005960464478 1.13999998569488525
0.0500000007450580597 0.25 1.1799999475479126
0.0500000007450580597 0.300000011920928955 -0.75
0.0500000007450580597 0.449999988079071045 1.23000001907348633
0.0500000007450580597 0.550000011920928955 -0.560000002384185791
0.0500000007450580597 0.550000011920928955 1.23000001907348633
0.0500000007450580597 0.75 -0.360000014305114746
0.0500000007450580597 0.75 1.1799999475479126
0.0500000007450580597 0.800000011920928955 -0.310000002384185791
0.0500000007450580597 0.89999997615814209 -0.159999996423721313
0.0500000007450580597 1 -6.39488462184090167e-14
0.0500000007450580597 1.04999995231628418 0.119999997317790985
0.0500000007450580597 1.04999995231628418 0.920000016689300537
0.0500000007450580597 1.10000002384185791 0.27000001072883606
0.0500000007450580597 1.10000002384185791 0.810000002384185791
0.100000001490116119 -1.10000002384185791 0.300000011920928955
0.100000001490116119 -1.10000002384185791 0.779999971389770508
0.100000001490116119 -1.04999995231628418 0.140000000596046448
0.100000001490116119 -0.64999997615814209 1.22000002861022949
0.100000001490116119 -0.60000002384185791 -0.509999990463256836
0.100000001490116119 -0.5 -0.60000002384185791
0.100000001490116119 -0.400000005960464478 -0.670000016689300537
0.100000001490116119 -0.400000005960464478 1.22000002861022949
0.100000001490116119 -0.100000001490116119 -0.879999995231628418
0.100000001490116119 -0.100000001490116119 1.10000002384185791
0.100000001490116119 0.100000001490116119 -0.879999995231628418
0.100000001490116119 0.400000005960464478 1.22000002861022949
0.100000001490116119 0.60000002384185791 -0.509999990463256836
0.100000001490116119 0.64999997615814209 1.22000002861022949
0.100000001490116119 0.75 -0.349999994039535522
0.100000001490116119 0.800000011920928955 1.15999996662139893
0.100000001490116119 0.85000002384185791 -0.219999998807907104
0.100000001490116119 1.04999995231628418 0.140000000596046448
0.100000001490116119 1.10000002384185791 0.300000011920928955
0.100000001490116119 1.10000002384185791 0.779999971389770508
0.150000005960464478 -1.10000002384185791 0.360000014305114746
0.150000005960464478 -1.10000002384185791 0.730000019073486328
0.150000005960464478 -1 0.0599999986588954926
0.150000005960464478 -0.800000011920928955 -0.27000001072883606
0.150000005960464478 -0.699999988079071045 -0.389999985694885254
0.150000005960464478 -0.60000002384185791 -0.5
0.150000005960464478 -0.60000002384185791 1.20000004768371582
0.150000005960464478 -0.550000011920928955 -0.529999971389770508
0.150000005960464478 -0.5 -0.579999983310699463
0.150000005960464478 -0.449999988079071045 -0.620000004768371582
0.150000005960464478 -0.400000005960464478 1.20000004768371582
0.150000005960464478 -0.349999994039535522 1.19000005722045898
0.150000005960464478 -0.300000011920928955 1.1799999475479126
0.150000005960464478 -0.100000001490116119 -0.860000014305114746
0.150000005960464478 -1.06581410364015028e-14 -0.910000026226043701
0.150000005960464478 0.100000001490116119 -0.860000014305114746
0.150000005960464478 0.200000002980232239 -0.800000011920928955
0.150000005960464478 0.200000002980232239 1.14999997615814209
0.150000005960464478 0.449999988079071045 1.21000003814697266
0.150000005960464478 0.60000002384185791 1.20000004768371582
0.150000005960464478 0.699999988079071045 -0.389999985694885254
0.150000005960464478 0.949999988079071045 -0.0500000007450580597
0.150000005960464478 0.949999988079071045 1.01999998092651367
0.150000005960464478 1 0.939999997615814209
0.150000005960464478 1.04999995231628418 0.180000007152557373
0.150000005960464478 1.10000002384185791 0.360000014305114746
0.150000005960464478 1.10000002384185791 0.730000019073486328
0.200000002980232239 -1.10000002384185791 0.60000002384185791
0.200000002980232239 -1.04999995231628418 0.779999971389770508
0.200000002980232239 -1 0.0799999982118606567
0.200000002980232239 -1 0.889999985694885254
0.200000002980232239 -0.949999988079071045 -0.0199999995529651642
0.200000002980232239 -0.949999988079071045 0.970000028610229492
0.200000002980232239 -0.85000002384185791 -0.180000007152557373
0.200000002980232239 -0.85000002384185791 1.08000004291534424
0.200000002980232239 -0.800000011920928955 1.11000001430511475
0.200000002980232239 -0.699999988079071045 1.15999996662139893
0.200000002980232239 -0.64999997615814209 -0.430000007152557373
0.200000002980232239 -0.5 -0.560000002384185791
0.200000002980232239 -0.449999988079071045 1.19000005722045898
0.200000002980232239 -0.400000005960464478 -0.639999985694885254
0.200000002980232239 -0.300000011920928955 -0.720000028610229492
0.200000002980232239 -0.200000002980232239 1.12999999523162842
0.200000002980232239 0.200000002980232239 1.12999999523162842
0.200000002980232239 0.5 -0.560000002384185791
0.200000002980232239 0.60000002384185791 -0.47999998927116394
0.200000002980232239 0.64999997615814209 -0.430000007152557373
0.200000002980232239 0.800000011920928955 1.11000001430511475
0.200000002980232239 0.85000002384185791 -0.180000007152557373
0.200000002980232239 0.85000002384185791 1.08000004291534424
0.200000002980232239 0.89999997615814209 -0.100000001490116119
0.200000002980232239 1 0.889999985694885254
0.200000002980232239 1.04999995231628418 0.230000004172325134
0.200000002980232239 1.04999995231628418 0.790000021457672119
0.200000002980232239 1.10000002384185791 0.60000002384185791
0.25 -1 0.170000001788139343
0.25 -0.949999988079071045 0.0199999995529651642
0.25 -0.89999997615814209 -0.0799999982118606567
0.25 -0.85000002384185791 1.03999996185302734
0.25 -0.400000005960464478 1.15999996662139893
0.25 -0.300000011920928955 1.14999997615814209
0.25 -0.200000002980232239 -0.75
0.25 -0.150000005960464478 1.08000004291534424
0.25 -1.06581410364015028e-14 -0.85000002384185791
0.25 0.100000001490116119 1.05999994277954102
0.25 0.150000005960464478 -0.779999971389770508
0.25 0.200000002980232239 -0.75
0.25 0.200000002980232239 1.11000001430511475
0.25 0.300000011920928955 1.14999997615814209
0.25 0.64999997615814209 -0.389999985694885254
0.25 0.85000002384185791 -0.140000000596046448
0.25 0.85000002384185791 1.03999996185302734
0.25 0.89999997615814209 -0.0799999982118606567
0.25 0.949999988079071045 0.0299999993294477463
0.25 1 0.170000001788139343
0.25 1.04999995231628418 0.330000013113021851
0.25 1.04999995231628418 0.680000007152557373
0.300000011920928955 -1.04999995231628418 0.509999990463256836
0.300000011920928955 -1.04999995231628418 0.550000011920928955
0.300000011920928955 -1 0.280000001192092896
0.300000011920928955 -0.949999988079071045 0.860000014305114746
0.300000011920928955 -0.89999997615814209 -0.0199999995529651642
0.300000011920928955 -0.85000002384185791 -0.0900000035762786865
0.300000011920928955 -0.800000011920928955 -0.180000007152557373
0.300000011920928955 -0.800000011920928955 1.01999998092651367
0.300000011920928955 -0.75 -0.23999999463558197
0.300000011920928955 -0.699999988079071045 -0.300000011920928955
0.300000011920928955 -0.64999997615814209 1.11000001430511475
0.300000011920928955 -0.5 1.12999999523162842
0.300000011920928955 -0.349999994039535522 -0.620000004768371582
0.300000011920928955 -0.349999994039535522 1.12000000476837158
0.300000011920928955 -0.200000002980232239 -0.720000028610229492
0.300000011920928955 -0.150000005960464478 1.05999994277954102
0.300000011920928955 -0.0500000007450580597 -0.800000011920928955
0.300000011920928955 -1.06581410364015028e-14 -0.810000002384185791
0.300000011920928955 0.150000005960464478 -0.75
0.300000011920928955 0.150000005960464478 1.05999994277954102
0.300000011920928955 0.200000002980232239 -0.720000028610229492
0.300000011920928955 0.200000002980232239 1.08000004291534424
0.300000011920928955 0.349999994039535522 -0.620000004768371582
0.300000011920928955 0.349999994039535522 1.12000000476837158
0.300000011920928955 0.5 1.12999999523162842
0.300000011920928955 0.64999997615814209 1.11000001430511475
0.300000011920928955 0.800000011920928955 1.01999998092651367
0.300000011920928955 0.949999988079071045 0.860000014305114746
0.300000011920928955 1 0.23999999463558197
0.300000011920928955 1 0.699999988079071045
0.300000011920928955 1.04999995231628418 0.529999971389770508
0.300000011920928955 1.04999995231628418 0.550000011920928955
0.349999994039535522 -1 0.469999998807907104
0.349999994039535522 -1 0.560000002384185791
0.349999994039535522 -0.949999988079071045 0.200000002980232239
0.349999994039535522 -0.949999988079071045 0.759999990463256836
0.349999994039535522 -0.89999997615814209 0.879999995231628418
0.349999994039535522 -0.85000002384185791 -0.0299999993294477463
0.349999994039535522 -0.800000011920928955 -0.119999997317790985
0.349999994039535522 -0.699999988079071045 -0.25
0.349999994039535522 -0.64999997615814209 -0.310000002384185791
0.349999994039535522 -0.550000011920928955 1.10000002384185791
0.349999994039535522 -0.5 -0.449999988079071045
0.349999994039535522 -0.400000005960464478 -0.540000021457672119
0.349999994039535522 -0.349999994039535522 -0.579999983310699463
0.349999994039535522 -0.200000002980232239 -0.680000007152557373
0.349999994039535522 -0.0500000007450580597 1
0.349999994039535522 0.0500000007450580597 1
0.349999994039535522 0.150000005960464478 -0.699999988079071045
0.349999994039535522 0.200000002980232239 1.04999995231628418
0.349999994039535522 0.349999994039535522 -0.579999983310699463
0.349999994039535522 0.400000005960464478 -0.540000021457672119
0.349999994039535522 0.550000011920928955 1.10000002384185791
0.349999994039535522 0.64999997615814209 -0.300000011920928955
0.349999994039535522 0.699999988079071045 -0.25
0.349999994039535522 0.85000002384185791 -0.0299999993294477463
0.349999994039535522 1 0.47999998927116394
0.349999994039535522 1 0.569999992847442627
0.400000005960464478 -0.949999988079071045 0.349999994039535522
0.400000005960464478 -0.949999988079071045 0.569999992847442627
0.400000005960464478 -0.89999997615814209 0.180000007152557373
0.400000005960464478 -0.75 -0.129999995231628418
0.400000005960464478 -0.699999988079071045 -0.189999997615814209
0.400000005960464478 -0.64999997615814209 1.00999999046325684
0.400000005960464478 -0.550000011920928955 1.04999995231628418
0.400000005960464478 -0.5 -0.400000005960464478
0.400000005960464478 -0.400000005960464478 -0.490000009536743164
0.400000005960464478 -0.25 1.02999997138977051
0.400000005960464478 -0.200000002980232239 -0.629999995231628418
0.400000005960464478 -0.100000001490116119 0.980000019073486328
0.400000005960464478 -0.0500000007450580597 -0.699999988079071045
0.400000005960464478 -1.06581410364015028e-14 0.959999978542327881
0.400000005960464478 0.0500000007450580597 0.959999978542327881
0.400000005960464478 0.100000001490116119 -0.680000007152557373
0.400000005960464478 0.200000002980232239 -0.629999995231628418
0.400000005960464478 0.200000002980232239 1.00999999046325684
0.400000005960464478 0.400000005960464478 -0.490000009536743164
0.400000005960464478 0.400000005960464478 1.05999994277954102
0.400000005960464478 0.449999988079071045 1.05999994277954102
0.400000005960464478 0.550000011920928955 -0.349999994039535522
0.400000005960464478 0.60000002384185791 -0.300000011920928955
0.400000005960464478 0.699999988079071045 -0.189999997615814209
0.400000005960464478 0.699999988079071045 0.980000019073486328
0.400000005960464478 0.800000011920928955 -0.0399999991059303284
0.400000005960464478 0.89999997615814209 0.180000007152557373
0.400000005960464478 0.89999997615814209 0.730000019073486328
0.400000005960464478 0.949999988079071045 0.360000014305114746
0.400000005960464478 0.949999988079071045 0.589999973773956299
0.449999988079071045 -0.89999997615814209 0.400000005960464478
0.449999988079071045 -0.89999997615814209 0.519999980926513672
0.449999988079071045 -0.89999997615814209 0.60000002384185791
0.449999988079071045 -0.85000002384185791 0.730000019073486328
0.449999988079071045 -0.800000011920928955 0.0599999986588954926
0.449999988079071045 -0.800000011920928955 0.810000002384185791
0.449999988079071045 -0.75 0.860000014305114746
0.449999988079071045 -0.699999988079071045 -0.119999997317790985
0.449999988079071045 -0.64999997615814209 -0.180000007152557373
0.449999988079071045 -0.449999988079071045 -0.389999985694885254
0.449999988079071045 -0.449999988079071045 1
0.449999988079071045 -0.300000011920928955 0.990000009536743164
0.449999988079071045 -0.150000005960464478 0.949999988079071045
0.449999988079071045 -0.0500000007450580597 -0.639999985694885254
0.449999988079071045 -1.06581410364015028e-14 -0.64999997615814209
0.449999988079071045 0.0500000007450580597 -0.639999985694885254
0.449999988079071045 0.300000011920928955 0.990000009536743164
0.449999988079071045 0.349999994039535522 -0.47999998927116394
0.449999988079071045 0.400000005960464478 1.00999999046325684
0.449999988079071045 0.449999988079071045 -0.389999985694885254
0.449999988079071045 0.5 -0.340000003576278687
0.449999988079071045 0.5 0.990000009536743164
0.449999988079071045 0.550000011920928955 -0.289999991655349731
0.449999988079071045 0.64999997615814209 -0.189999997615814209
0.449999988079071045 0.64999997615814209 0.939999997615814209
0.449999988079071045 0.699999988079071045 0.910000026226043701
0.449999988079071045 0.75 -0.0299999993294477463
0.449999988079071045 0.800000011920928955 0.0599999986588954926
0.449999988079071045 0.800000011920928955 0.810000002384185791
0.449999988079071045 0.85000002384185791 0.180000007152557373
0.449999988079071045 0.85000002384185791 0.730000019073486328
0.449999988079071045 0.89999997615814209 0.389999985694885254
0.449999988079071045 0.89999997615814209 0.60000002384185791
0.5 -0.85000002384185791 0.419999986886978149
0.5 -0.800000011920928955 0.64999997615814209
0.5 -0.75 0.0900000035762786865
0.5 -0.75 0.75
0.5 -0.699999988079071045 -6.39488462184090167e-14
0.5 -0.60000002384185791 -0.170000001788139343
0.5 -0.550000011920928955 0.910000026226043701
0.5 -0.449999988079071045 -0.319999992847442627
0.5 -0.400000005960464478 0.939999997615814209
0.5 -0.349999994039535522 -0.409999996423721313
0.5 -0.349999994039535522 0.930000007152557373
0.5 -0.200000002980232239 -0.509999990463256836
0.5 -1.06581410364015028e-14 -0.589999973773956299
0.5 -1.06581410364015028e-14 0.860000014305114746
0.5 0.100000001490116119 -0.550000011920928955
0.5 0.150000005960464478 -0.540000021457672119
0.5 0.200000002980232239 -0.509999990463256836
0.5 0.349999994039535522 0.930000007152557373
0.5 0.400000005960464478 0.939999997615814209
0.5 0.5 -0.27000001072883606
0.5 0.550000011920928955 -0.219999998807907104
0.5 0.60000002384185791 -0.170000001788139343
0.5 0.64999997615814209 0.860000014305114746
0.5 0.699999988079071045 -0.0199999995529651642
0.5 0.699999988079071045 0.800000011920928955
0.5 0.75 0.75
0.5 0.800000011920928955 0.25
0.5 0.800000011920928955 0.64999997615814209
0.550000011920928955 -0.75 0.300000011920928955
0.550000011920928955 -0.75 0.409999996423721313
0.550000011920928955 -0.699999988079071045 0.689999997615814209
0.550000011920928955 -0.60000002384185791 0.790000021457672119
0.550000011920928955 -0.550000011920928955 -0.119999997317790985
0.550000011920928955 -0.550000011920928955 0.810000002384185791
0.550000011920928955 -0.5 -0.170000001788139343
0.550000011920928955 -0.5 0.829999983310699463
0.550000011920928955 -0.400000005960464478 -0.280000001192092896
0.550000011920928955 -0.349999994039535522 -0.330000013113021851
0.550000011920928955 -0.349999994039535522 0.85000002384185791
0.550000011920928955 -0.300000011920928955 -0.370000004768371582
0.550000011920928955 -0.150000005960464478 -0.460000008344650269
0.550000011920928955 -1.06581410364015028e-14 -0.5
0.550000011920928955 0.100000001490116119 0.810000002384185791
0.550000011920928955 0.150000005960464478 0.819999992847442627
0.550000011920928955 0.200000002980232239 -0.419999986886978149
0.550000011920928955 0.200000002980232239 0.839999973773956299
0.550000011920928955 0.349999994039535522 -0.319999992847442627
0.550000011920928955 0.349999994039535522 0.85000002384185791
0.550000011920928955 0.400000005960464478 -0.280000001192092896
0.550000011920928955 0.449999988079071045 0.85000002384185791
0.550000011920928955 0.5 0.829999983310699463
0.550000011920928955 0.60000002384185791 0.790000021457672119
0.550000011920928955 0.64999997615814209 0.0399999991059303284
0.550000011920928955 0.64999997615814209 0.730000019073486328
0.550000011920928955 0.699999988079071045 0.140000000596046448
0.550000011920928955 0.699999988079071045 0.689999997615814209
0.550000011920928955 0.75 0.409999996423721313
0.60000002384185791 -0.64999997615814209 0.300000011920928955
0.60000002384185791 -0.60000002384185791 0.140000000596046448
0.60000002384185791 -0.449999988079071045 0.720000028610229492
0.60000002384185791 -0.25 0.740000009536743164
0.60000002384185791 -0.100000001490116119 -0.379999995231628418
0.60000002384185791 -0.0500000007450580597 -0.389999985694885254
0.60000002384185791 -0.0500000007450580597 0.730000019073486328
0.60000002384185791 0.0500000007450580597 0.730000019073486328
0.60000002384185791 0.100000001490116119 0.740000009536743164
0.60000002384185791 0.150000005960464478 -0.360000014305114746
0.60000002384185791 0.200000002980232239 -0.319999992847442627
0.60000002384185791 0.25 -0.27000001072883606
0.60000002384185791 0.400000005960464478 -0.170000001788139343
0.60000002384185791 0.449999988079071045 -0.109999999403953552
0.60000002384185791 0.5 -0.0599999986588954926
0.60000002384185791 0.64999997615814209 0.360000014305114746
0.64999997615814209 -0.5 0.230000004172325134
0.64999997615814209 -0.5 0.389999985694885254
0.64999997615814209 -0.449999988079071045 0.100000001490116119
0.64999997615814209 -0.400000005960464478 0.0299999993294477463
0.64999997615814209 -0.349999994039535522 -0.00999999977648258209
0.64999997615814209 -0.300000011920928955 -0.100000001490116119
0.64999997615814209 -0.300000011920928955 0.589999973773956299
0.64999997615814209 -0.200000002980232239 -0.170000001788139343
0.64999997615814209 -0.200000002980232239 0.60000002384185791
0.64999997615814209 -0.100000001490116119 -0.230000004172325134
0.64999997615814209 0.100000001490116119 -0.230000004172325134
0.64999997615814209 0.150000005960464478 -0.209999993443489075
0.64999997615814209 0.200000002980232239 -0.170000001788139343
0.64999997615814209 0.200000002980232239 0.60000002384185791
0.64999997615814209 0.25 -0.150000005960464478
0.64999997615814209 0.300000011920928955 -0.100000001490116119
0.64999997615814209 0.349999994039535522 -0.0399999991059303284
0.64999997615814209 0.400000005960464478 0.0299999993294477463
0.64999997615814209 0.400000005960464478 0.569999992847442627
0.64999997615814209 0.449999988079071045 0.100000001490116119
0.64999997615814209 0.5 0.27000001072883606
0.64999997615814209 0.5 0.400000005960464478
0.699999988079071045 -0.25 0.180000007152557373
0.699999988079071045 -0.25 0.300000011920928955
0.699999988079071045 -0.200000002980232239 0.0799999982118606567
0.699999988079071045 -0.200000002980232239 0.370000004768371582
0.699999988079071045 -0.150000005960464478 0.0700000002980232239
0.699999988079071045 -0.150000005960464478 0.389999985694885254
0.699999988079071045 -0.100000001490116119 -0.0199999995529651642
0.699999988079071045 -0.100000001490116119 0.0500000007450580597
0.699999988079071045 -0.100000001490116119 0.400000005960464478
0.699999988079071045 -0.0500000007450580597 0.409999996423721313
0.699999988079071045 -1.06581410364015028e-14 -0.0500000007450580597
0.699999988079071045 -1.06581410364015028e-14 0.200000002980232239
0.699999988079071045 -1.06581410364015028e-14 0.400000005960464478
0.699999988079071045 0.0500000007450580597 -0.0700000002980232239
0.699999988079071045 0.0500000007450580597 0.409999996423721313
0.699999988079071045 0.100000001490116119 0.0299999993294477463
0.699999988079071045 0.100000001490116119 0.379999995231628418
0.699999988079071045 0.150000005960464478 0.0500000007450580597
0.699999988079071045 0.150000005960464478 0.379999995231628418
0.699999988079071045 0.200000002980232239 0.0900000035762786865
0.699999988079071045 0.200000002980232239 0.370000004768371582
0.699999988079071045 0.25 0.140000000596046448
0.699999988079071045 0.25 0.310000002384185791
